# .PCD v0.7 - Point Cloud Data file format
VERSION 0.7
FIELDS x y z
SIZE 4 4 4
TYPE F F F
COUNT 1 1 1
WIDTH 1438
HEIGHT 1
VIEWPOINT 0 0 0 1 0 0 0
POINTS 1438
DATA ascii
0.2493967 -2.1145799 -0.10554979
0.21904911 -1.9728131 -0.096196227
0.22365919 -1.8429407 -0.09504471
0.21647303 -1.7111584 -0.091159388
0.19737853 -1.5780112 -0.084527537
0.17584312 -1.4460957 -0.077355236
0.16146673 -1.3173021 -0.071874574
0.163983 -1.1928532 -0.070335299
0.15469271 -1.0672119 -0.066072896
0.15285146 -0.94362682 -0.063549638
0.16821344 -0.82277405 -0.065011568
0.16212954 -0.69969612 -0.061525024
0.1733447 -0.57873881 -0.062034555
0.18249953 -0.4576045 -0.06206993
0.17011845 -0.3353973 -0.057157058
0.18487427 -0.21466298 -0.058481786
0.18783398 -0.093409233 -0.057095725
0.19847454 0.027931804 -0.057468731
0.20705189 0.14960641 -0.057360962
0.21355104 0.2715795 -0.056774445
0.21796785 0.3938188 -0.055704996
0.22029279 0.51628274 -0.054153305
0.22051817 0.63893807 -0.052119154
0.21864352 0.76173764 -0.04959983
0.23400597 0.88719368 -0.050982192
0.22786 1.0105242 -0.047476485
0.22921966 1.1355112 -0.045661408
0.23798873 1.2626271 -0.045506209
0.2253747 1.3864608 -0.04051064
0.2106162 1.5102161 -0.035026234
0.14624533 1.6223229 -0.018379482
-0.27912408 1.6386327 0.079298273
-0.63705426 1.6587185 0.1616004
-0.65653479 1.7676445 0.167917
-0.668598 1.8793298 0.172582
-0.65486979 2.000546 0.17150228
-0.67110431 2.1128721 0.17713471
-0.86329597 2.1592565 0.22193637
-1.1279976 2.1703403 0.28274214
-1.210664 2.2485623 0.3030073
-2.4330423 1.8218716 0.57567847
-2.9450035 1.6734524 0.69040328
-3.0621746 1.6954849 0.71761966
-3.152714 1.7271352 0.73890036
-3.2519269 1.7514746 0.76204413
-3.3681142 1.7633139 0.78886229
-3.5262625 1.7470659 0.8248145
-3.7334628 1.695429 0.87139833
-3.8628225 1.6837194 0.900837
-3.9496202 1.6946449 0.92091113
-2.8123779 12.727951 0.84763676
-3.2082868 12.147658 0.92850095
-3.3928216 12.292431 0.97321522
-3.5953386 12.375962 1.0210118
-3.8258705 12.338912 1.0731856
-3.1817625 -10.460612 0.55579662
-2.9626732 -10.521237 0.50463253
-2.7505488 -10.549039 0.45562047
-2.5293531 -10.591042 0.404291
-2.3312478 -10.56356 0.35943052
-3.0972338 -8.2186117 0.57469076
-1.9143025 -10.542491 0.26438448
-1.7064682 -10.521029 0.21719408
-1.4850683 -10.522203 0.16651352
-1.2799215 -10.483096 0.12023861
-1.097519 -10.395837 0.079989709
-3.098295 -6.295588 0.60777366
-2.9524553 -6.3020329 0.57429969
-2.8456466 -6.2368264 0.55097926
-1.3718245 -8.4000902 0.17682062
-1.3679152 -8.0889359 0.18124038
-1.3784547 -7.7720556 0.18906522
-1.3813405 -7.482595 0.19467235
-1.3752372 -7.2198639 0.19776633
-1.3294135 -7.0228815 0.19064946
-1.3488646 -6.7480869 0.19979975
-1.3822026 -6.4684796 0.21220829
-1.3983116 -6.2227049 0.22010008
-1.3570857 -6.0546303 0.2135438
-1.23501 -5.9831123 0.18683778
-1.1337759 -5.8872495 0.16531666
-1.0206062 -5.8038993 0.14085132
-0.83264917 -5.7956133 0.097989015
-0.67140508 -5.7547278 0.061796449
0.33300877 -6.5094247 -0.1809396
0.37049282 -6.318913 -0.18625675
0.39623851 -6.1225739 -0.18878654
0.43238953 -5.9400487 -0.19393431
0.44927853 -5.7456355 -0.194471
0.50016856 -5.5830259 -0.20333111
0.50868064 -5.3905206 -0.20198202
0.54440182 -5.2227778 -0.20728178
0.56857616 -5.0497437 -0.20984961
0.59713137 -4.8830199 -0.21352579
0.61400008 -4.7114387 -0.21444634
0.62722492 -4.5407815 -0.21454692
0.62010163 -4.3609262 -0.20983438
0.609056 -4.1827364 -0.20425192
0.55147338 -3.9823337 -0.18763836
0.54958212 -3.817811 -0.18438436
0.51818472 -3.6411378 -0.17416897
0.50926316 -3.4797864 -0.1693581
0.4616372 -3.3032005 -0.15543045
0.45473412 -3.1494825 -0.15121345
0.44474879 -2.9970522 -0.1463102
0.41362235 -2.8385787 -0.13646728
0.39746019 -2.6892219 -0.13020332
0.38750869 -2.5447018 -0.12544423
0.37475869 -2.4013793 -0.12006564
0.34997547 -2.2562814 -0.11190152
0.34102646 -2.1185567 -0.10748652
0.32948995 -1.9818703 -0.10249787
0.31540683 -1.8462598 -0.09694431
0.29880497 -1.7117736 -0.090834104
0.27971771 -1.5784669 -0.084175132
0.26772487 -1.4484072 -0.079193503
0.25338134 -1.3192831 -0.073691301
0.24632557 -1.1928033 -0.06990099
0.24666372 -1.0685104 -0.067841649
0.2448386 -0.94457531 -0.065292306
0.25053889 -0.82221532 -0.064492606
0.25413948 -0.69995451 -0.063213892
0.27506587 -0.5794546 -0.065930583
0.26477814 -0.45651266 -0.061461549
0.2718479 -0.33507285 -0.060990952
0.27685496 -0.21352722 -0.060046006
0.28953809 -0.092036761 -0.060859744
0.29040325 0.029771581 -0.058963057
0.29894435 0.15179968 -0.058819443
0.29566464 0.27372083 -0.055970412
0.30977276 0.39671558 -0.057085793
0.31204814 0.51952213 -0.055492993
0.3122147 0.64252567 -0.053416394
0.31027749 0.76567262 -0.05085383
0.32556802 0.89148164 -0.05219065
0.31934828 1.0151569 -0.048640303
0.31100148 1.1388599 -0.044601191
0.31971064 1.2661511 -0.0444072
0.30703104 1.3901507 -0.039372001
0.30173972 1.5162035 -0.035993516
0.21827978 1.6240264 -0.015033535
-0.2165498 1.6377183 0.08474759
-0.56503499 1.6601661 0.1649148
-0.5751797 1.771893 0.16915967
-0.56868494 1.8897104 0.16970047
-0.59219813 1.998839 0.17696193
-0.59920138 2.1143105 0.18055141
-0.91039973 2.1154652 0.25182056
-1.0561082 2.1716259 0.28614846
-1.1839476 2.2308269 0.31643882
-2.2086649 1.890077 0.5451982
-2.873004 1.6741773 0.69359964
-2.9901791 1.6961616 0.72081476
-3.0807245 1.7277871 0.74209762
-3.1799469 1.7521007 0.76524132
-3.3133304 1.7544119 0.79583037
-3.4713099 1.7378025 0.83172774
-3.6783283 1.6857992 0.87824589
-3.7824786 1.6893518 0.90216428
-3.8693655 1.7003978 0.92225957
-3.9394624 1.7198477 0.93865538
-2.3169847 3.030771 0.58966011
-2.7658479 12.652044 0.85694849
-2.8775189 13.091733 0.89001024
-3.3635957 12.138211 0.98504692
-3.5915656 12.104408 1.0366657
-3.7392097 12.417371 1.0758028
-3.896652 12.728602 1.1171521
-3.1021175 -10.526084 0.55272186
-2.8850679 -10.576821 0.50226039
-2.6652479 -10.62295 0.4512454
-2.467355 -10.599204 0.40643027
-3.1872816 -8.2597075 0.6108008
-2.0437219 -10.604363 0.3095395
-1.8478281 -10.559375 0.2655423
-1.6272583 -10.564812 0.21504714
-1.4136655 -10.547618 0.16653323
-1.208059 -10.508212 0.12022144
-3.1718199 -6.3113055 0.64050996
-2.9699092 -6.4253197 0.59243357
-2.929503 -6.2405958 0.586357
-2.78845 -6.2357583 0.55421418
-1.3916886 -8.2718868 0.20031972
-1.3953512 -7.9537959 0.20658438
-1.3973069 -7.6549816 0.21213253
-1.3854144 -7.3913813 0.21391439
-1.4039026 -7.0975571 0.22315519
-1.3896068 -6.8623862 0.22390507
-1.3757194 -6.636785 0.22458707
-1.4110048 -6.3587184 0.23739895
-1.3850387 -6.1678495 0.23472813
-1.3383529 -6.0080709 0.22679241
-1.2170537 -5.9372129 0.20028874
-1.1232605 -5.8347588 0.18060894
-0.96345758 -5.8022685 0.14465067
-0.72021925 -5.8501363 0.088253222
-0.6072247 -5.7598901 0.063978396
0.39044774 -6.507391 -0.17677295
0.4351345 -6.3235097 -0.18384133
0.46093169 -6.1270247 -0.18637879
0.48965368 -5.9379692 -0.1897103
0.50648648 -5.7435536 -0.1902336
0.55733281 -5.5809302 -0.19907035
0.5813809 -5.4003534 -0.20147966
0.6093536 -5.2264919 -0.20489721
0.63357377 -5.0533056 -0.20747025
0.65407807 -4.8808804 -0.20920593
0.67089802 -4.7092948 -0.2101137
0.68407041 -4.5386343 -0.21020263
0.68525714 -4.3638701 -0.20748298
0.65733492 -4.1756454 -0.19788094
0.60813713 -3.9801989 -0.18329239
0.59757549 -3.811039 -0.17798275
0.56603914 -3.6345246 -0.16775329
0.55698949 -3.4733291 -0.16292405
0.51807654 -3.3010802 -0.15108199
0.50221026 -3.1433594 -0.14475341
0.49210447 -2.9910834 -0.13983525
0.47895557 -2.8401568 -0.13424404
0.45369527 -2.6871195 -0.12584846
0.44369546 -2.5425951 -0.12108611
0.4401246 -2.4024715 -0.11786851
0.42462769 -2.2602487 -0.11188681
0.40640113 -2.1193252 -0.10530617
0.38548928 -1.9797695 -0.098134644
0.3619405 -1.8416328 -0.090383224
0.35471153 -1.7096794 -0.086468689
0.35458773 -1.5807583 -0.08422906
0.33308309 -1.4483404 -0.077042192
0.30915627 -1.317197 -0.069324642
0.32126364 -1.194074 -0.069979236
0.30235487 -1.0664207 -0.063466802
0.30048692 -0.94248796 -0.060913812
0.30614617 -0.82012194 -0.060107667
0.30970207 -0.69785601 -0.058823623
0.32087544 -0.57653874 -0.059295788
0.3202568 -0.45441052 -0.057059281
0.32728928 -0.33296382 -0.056583017
0.33225161 -0.21141307 -0.05563179
0.32540074 -0.08969266 -0.051976822
0.3457233 0.031891212 -0.054535557
0.35421962 0.15392442 -0.054384708
0.36063766 0.27625617 -0.053753208
0.36496776 0.3988449 -0.052638892
0.36719853 0.52165651 -0.051041719
0.37703431 0.64559031 -0.051164657
0.36534044 0.76780969 -0.046395484
0.37091479 0.8923474 -0.045533806
0.37432724 1.0172976 -0.044169009
0.36593601 1.1410058 -0.04012933
0.37460032 1.268302 -0.039927151
0.36187807 1.3922992 -0.034892116
0.34701136 1.5162179 -0.029368246
0.29202569 1.6307672 -0.014833113
-0.18073873 1.6347569 0.093319274
-0.51035351 1.6620554 0.1691466
-0.51116866 1.7765965 0.1712991
-0.50476635 1.8945807 0.17186005
-0.56543088 1.9912801 0.18738919
-0.62757158 2.0863767 0.20322874
-0.87421089 2.1102993 0.26003194
-1.0289261 2.1624551 0.29630223
-1.1385525 2.2287347 0.32250604
-2.0466268 1.9390231 0.52517027
-2.8274248 1.6712338 0.69911343
-2.9357231 1.6973158 0.72433031
-3.0262916 1.7289113 0.74558765
-3.1168537 1.7577827 0.76679826
-3.2589278 1.755464 0.79925239
-3.3913763 1.7535077 0.82951301
-3.6239414 1.6867422 0.88155639
-3.7364514 1.6850592 0.90726298
-3.8067505 1.706629 0.92371804
-3.8769562 1.7262019 0.94011581
-3.9631534 1.7325071 0.95994478
-2.2470093 3.0437117 0.58997166
-2.4252555 3.0235691 0.63039112
-2.4227686 3.1375332 0.63177824
-2.890939 12.861912 0.90468264
-3.3503046 11.994203 0.99495596
-3.5337691 12.134582 1.0392916
-3.6559813 12.564683 1.0745499
-3.872153 12.602225 1.1246153
-3.1485794 -10.526324 0.57759184
-2.9292955 -10.588554 0.52646214
-2.7167122 -10.617887 0.47742179
-2.5054927 -10.633458 0.42892468
-2.2997911 -10.626118 0.38207707
-2.093127 -10.614632 0.33508042
-1.8855841 -10.598965 0.28795186
-1.6772375 -10.579088 0.24071199
-1.4555073 -10.58195 0.19002913
-1.2497129 -10.544396 0.14367175
-3.1701355 -6.3483086 0.65348428
-2.9923608 -6.4201951 0.6116752
-2.9461935 -6.2448277 0.60411936
-2.8055246 -6.2414699 0.57206208
-1.374725 -8.3748236 0.20907927
-1.3800111 -8.0476484 0.21584949
-1.3840488 -7.7399359 0.22200406
-1.3748121 -7.4677362 0.2245248
-1.3789505 -7.189559 0.23020346
-1.332787 -6.9938788 0.22299199
-1.339361 -6.735651 0.22888811
-1.3957605 -6.425386 0.2470507
-1.3802613 -6.2190604 0.24702483
-1.3511685 -6.0368776 0.24348536
-1.2554473 -5.9375057 0.22332112
-1.1483397 -5.8512235 0.20033409
-1.0156679 -5.7917533 0.17105211
-0.71211946 -5.9064655 0.099782258
-0.62613529 -5.7892113 0.082145318
-0.47149366 -5.7390618 0.047686998
0.46856627 -6.4162283 -0.17852774
0.48192203 -6.2061558 -0.178
0.51997679 -6.0233965 -0.18357782
0.5614754 -5.8475127 -0.19005886
0.59912217 -5.6720133 -0.1956673
0.61744535 -5.4849229 -0.19666336
0.63941401 -5.3048334 -0.19861153
0.68127519 -5.1429334 -0.20541228
0.69564748 -4.9643569 -0.20565015
0.69798177 -4.7813983 -0.20306407
0.7292245 -4.6211853 -0.20746787
0.73222411 -4.4458318 -0.20516139
0.71462542 -4.2617784 -0.19800334
0.68446672 -4.0748868 -0.18792622
0.64156646 -3.8856947 -0.17489992
0.62905508 -3.7175655 -0.1691732
0.60425109 -3.5467005 -0.16059159
0.57580709 -3.3778903 -0.15121269
0.56153578 -3.2193875 -0.1452466
0.54402131 -3.062454 -0.13856667
0.54133922 -2.9146991 -0.13543105
0.51760709 -2.7607856 -0.127381
0.49991053 -2.6120796 -0.12079876
0.48848101 -2.4681499 -0.11572826
0.4742735 -2.3254523 -0.11004522
0.45732498 -2.1840413 -0.10375641
0.43767461 -2.0439622 -0.096874341
0.41536686 -1.9052838 -0.089408003
0.40932539 -1.7729267 -0.085765384
0.39138567 -1.6391159 -0.079380177
0.37098286 -1.5065107 -0.072451308
0.36726299 -1.3790139 -0.069422469
0.36128443 -1.2521328 -0.065885633
0.35305461 -1.1258969 -0.061846584
0.35224342 -1.0017717 -0.059538644
0.3492763 -0.87803394 -0.056744579
0.35385182 -0.75579631 -0.055699684
0.37574425 -0.63546288 -0.058642358
0.36643618 -0.51243329 -0.054411747
0.38421276 -0.3915875 -0.05640487
0.38045123 -0.26952833 -0.053459041
0.38436079 -0.14794163 -0.052271403
0.39594683 -0.026331414 -0.052839052
0.39571244 0.09547817 -0.050701935
0.40315071 0.21758534 -0.050313707
0.41824222 0.34047261 -0.051660035
0.42149645 0.46327251 -0.050303064
0.42264375 0.58627772 -0.048462346
0.43138888 0.71046644 -0.048336506
0.4186126 0.83274615 -0.043327101
0.43274549 0.95887285 -0.04439953
0.42538026 1.0826563 -0.040600523
0.41588426 1.2064508 -0.036314543
0.41383135 1.3321074 -0.033697303
0.40957633 1.4580336 -0.03057258
0.38408059 1.5797442 -0.02266595
0.13863339 1.6458446 0.034553356
-0.3333202 1.64205 0.14234297
-0.47452646 1.7175976 0.17590621
-0.46700484 1.8350348 0.17619538
-0.46168026 1.9532375 0.17700067
-0.5601806 2.036593 0.2009383
-0.5678966 2.1510096 0.20465818
-0.97910446 2.1090009 0.29792261
-1.0608593 2.1870744 0.31794444
-2.2501915 1.7848493 0.58290017
-2.6382008 1.6970068 0.67008841
-2.8269773 1.6883943 0.71309727
-2.9264133 1.717189 0.7363255
-3.0170164 1.7474723 0.7575615
-3.1334896 1.7610183 0.78442484
-3.2921512 1.7467923 0.82045788
-3.4832039 1.70753 0.86346793
-3.6384025 1.6825213 0.89852685
-3.7254543 1.6947297 0.9186458
-3.7956555 1.7152069 0.93505448
-3.8657353 1.7336859 0.95140153
-1.7704855 3.2937284 0.4990859
-2.2310069 3.0771635 0.60066462
-2.4011378 3.0612237 0.63928872
-2.7678447 12.716447 0.88711411
-2.9743366 12.817339 0.93601942
-3.3835969 12.109887 1.0175911
-3.5967774 12.132059 1.0666947
-3.7744012 12.31649 1.1104161
-3.8980496 12.802315 1.1469003
-3.2232876 -10.525825 0.60053313
-3.0019932 -10.599614 0.54874146
-2.7964084 -10.612045 0.50157684
-2.5691836 -10.676555 0.44858646
-2.3738539 -10.643008 0.40454027
-3.1200781 -8.2388744 0.61566657
-1.9601176 -10.619721 0.31043464
-1.7559422 -10.592689 0.26425549
-1.5347308 -10.597703 0.21364528
-1.329116 -10.562163 0.16728231
-1.1276652 -10.513602 0.12209005
-3.1167297 -6.2737513 0.64820004
-2.962846 -6.3008618 0.61259866
-2.8511238 -6.2467093 0.5880037
-1.3880613 -8.478137 0.21603613
-1.3948375 -8.1418219 0.22328222
-1.3901551 -7.8418541 0.22729658
-1.3995945 -7.5360522 0.23463582
-1.3897992 -7.2738318 0.23684414
-1.3873713 -7.0136518 0.24070141
-1.3804609 -6.7715726 0.24322765
-1.3862478 -6.5236235 0.24875642
-1.41123 -6.262569 0.25889036
-1.380654 -6.080636 0.25499359
-1.2969651 -5.9670939 0.23780708
-1.1959684 -5.8745847 0.21630993
-1.0765436 -5.8020926 0.19026373
-0.78139096 -5.9129124 0.12096849
-0.66062069 -5.8322577 0.094752327
-0.52681041 -5.7628751 0.065365955
0.4642984 -6.5028911 -0.17357939
0.50162226 -6.3123388 -0.17887275
0.52720231 -6.1159682 -0.18138362
0.5631969 -5.9334016 -0.18650934
0.58751953 -5.7452126 -0.18887134
0.6229822 -5.5702095 -0.1940017
0.63122863 -5.37783 -0.19261967
0.66670609 -5.2101917 -0.19787809
0.70664287 -5.0486326 -0.20425749
0.71895051 -4.8706503 -0.20404875
0.73558688 -4.6992025 -0.20493646
0.7485702 -4.5286736 -0.20500667
0.74120206 -4.3489633 -0.20027125
0.71300352 -4.1610475 -0.19063734
0.672068 -3.9707196 -0.1780531
0.6699577 -3.8063509 -0.17477669
0.6470229 -3.6343336 -0.1666145
0.62040716 -3.4643333 -0.15764533
0.58132553 -3.2922661 -0.14579219
0.57422036 -3.1387064 -0.14155854
0.5640294 -2.9864354 -0.13664165
0.53269738 -2.8281524 -0.12679221
0.51634079 -2.6789677 -0.12051861
0.50620407 -2.5346098 -0.11574769
0.49327073 -2.3914568 -0.11035801
0.47758165 -2.2495625 -0.10436092
0.46850836 -2.1118441 -0.099944353
0.43809393 -1.9697713 -0.090579502
0.42379999 -1.8345094 -0.085011117
0.4164584 -1.7027243 -0.081091546
0.4067198 -1.5717837 -0.076638132
0.38506398 -1.439716 -0.069443002
0.37057266 -1.310761 -0.0639375
0.37297565 -1.1861264 -0.062365137
0.37320617 -1.061828 -0.060301695
0.36161023 -0.93656206 -0.055520706
0.37685683 -0.81551611 -0.056944054
0.380348 -0.69324231 -0.055660501
0.39145282 -0.57191789 -0.05613238
0.40049365 -0.4504174 -0.056130271
0.39772791 -0.32832152 -0.053420201
0.40262356 -0.20677117 -0.052469417
0.39570057 -0.08504463 -0.048816226
0.41595283 0.036553703 -0.051374894
0.42438436 0.15859486 -0.051223587
0.42098972 0.28051978 -0.048373647
0.42525771 0.40294424 -0.04726427
0.4371523 0.52635461 -0.04788202
0.4274973 0.64842278 -0.043599032
0.43515167 0.77251261 -0.043237228
0.44065753 0.89705741 -0.042375259
0.4439941 1.0220128 -0.041012414
0.42590764 1.1440927 -0.034801226
0.44412282 1.2730294 -0.036771264
0.43132654 1.3970244 -0.031737961
0.41638935 1.5209262 -0.026215376
0.36133888 1.6354519 -0.011684955
-0.1303363 1.6341845 0.10066453
-0.45047337 1.6636008 0.17433426
-0.44195208 1.7808007 0.17438129
-0.44493172 1.8958004 0.17702068
-0.52412635 1.9859968 0.1966562
-0.58615553 2.0805614 0.21244581
-0.74113011 2.1386726 0.24885707
-1.0417513 2.133544 0.31748411
-1.1057128 2.2173419 0.33353055
-1.19778 2.2875865 0.35577288
-2.7581444 1.6740265 0.7020061
-2.8664575 1.7000419 0.72721481
-2.9570446 1.7315856 0.74846458
-3.0476215 1.760406 0.76966673
-3.1982882 1.7532457 0.8039937
-3.3561881 1.7363391 0.83980954
-3.5630908 1.6839917 0.88622499
-3.6588271 1.6925074 0.90826339
-3.7374799 1.7088282 0.92653102
-3.8076911 1.7283603 0.94292355
-3.8616295 1.7572042 0.95575327
-2.2422855 3.0005808 0.6067003
-2.3410292 3.038516 0.62992167
-2.2766702 3.201328 0.61797887
-2.863246 12.739604 0.91353101
-3.2675383 12.074188 0.9947167
-3.4850302 12.078744 1.0445124
-3.6498125 12.313378 1.0861427
-3.855696 12.379213 1.1343187
-3.9824524 12.87383 1.171643
-3.082231 -10.572025 0.57448274
-2.8589621 -10.64335 0.52228695
-2.6421003 -10.681643 0.47211152
-2.450386 -10.640654 0.42901868
-3.1663458 -8.2580881 0.63283581
-2.0263906 -10.649156 0.33203918
-1.8221201 -10.623982 0.28581089
-1.6132922 -10.6038 0.23845772
-1.3953012 -10.597354 0.18877774
-1.1935713 -10.55064 0.14349371
-3.1473079 -6.2934666 0.66179061
-2.9703777 -6.3657789 0.62016684
-2.9010115 -6.2342582 0.60656345
-2.7505183 -6.2480869 0.57196796
-1.3954368 -8.2533836 0.22850606
-1.4028504 -7.9275317 0.23572508
-1.414392 -7.6128669 0.24369805
-1.3962629 -7.3585515 0.24387206
-1.4079831 -7.0735893 0.25138545
-1.3987368 -6.8313708 0.25338638
-1.3723514 -6.6226206 0.25090644
-1.4124537 -6.3372393 0.26491225
-1.386009 -6.1474762 0.26209962
-1.3390744 -5.9889827 0.25407591
-1.237655 -5.8977098 0.23246607
-1.1245762 -5.8192973 0.2079761
-0.93853915 -5.8179002 0.16551332
-0.62071753 -5.9461718 0.090747379
-0.5968051 -5.7655096 0.088358454
0.42273405 -6.5492697 -0.15783167
0.50471008 -6.3995395 -0.17401056
0.53242087 -6.2028737 -0.17699954
0.56299442 -6.0136595 -0.18076617
0.60434258 -5.8379054 -0.18722181
0.62654215 -5.6501899 -0.1891012
0.64450681 -5.4635139 -0.19002846
0.67397892 -5.2897415 -0.19380444
0.72355723 -5.1338644 -0.20247632
0.7297371 -4.9498167 -0.20075564
0.73183721 -4.7671642 -0.19812609
0.76286089 -4.6072383 -0.20248984
0.77396542 -4.4373536 -0.20213293
0.74781954 -4.2484536 -0.19294262
0.71744895 -4.0618792 -0.18282552
0.68291873 -3.8777323 -0.17179948
0.67029017 -3.7097721 -0.16605076
0.64537269 -3.5390751 -0.15744792
0.60800511 -3.3661976 -0.14596236
0.59356117 -3.2080259 -0.13996363
0.59377933 -3.0592773 -0.13747604
0.58205539 -2.9077659 -0.13221119
0.54914612 -2.7504334 -0.12200683
0.53130305 -2.6020682 -0.11539717
0.52893138 -2.46175 -0.11245863
0.51464397 -2.3192284 -0.10676021
0.49762118 -2.1779997 -0.10045753
0.48725408 -2.0408828 -0.095746927
0.46492553 -1.9022169 -0.088273764
0.43997496 -1.7649982 -0.08022806
0.43142191 -1.6338108 -0.0760305
0.42048311 -1.503481 -0.071303077
0.39762807 -1.3721417 -0.063835613
0.39156473 -1.2456104 -0.060285311
0.39288354 -1.1213158 -0.058459949
0.39203364 -0.99737257 -0.056145925
0.38902777 -0.87381655 -0.053344823
0.39357024 -0.75175166 -0.052294679
0.40572402 -0.63070744 -0.052999768
0.41581586 -0.50946307 -0.053232156
0.41411105 -0.38753459 -0.05075575
0.41032267 -0.26583514 -0.047807723
0.4142074 -0.14459988 -0.046620801
0.43552312 -0.023356883 -0.049418263
0.43527815 0.098269559 -0.04728128
0.44270945 0.2201945 -0.046892066
0.44805503 0.34240043 -0.04602417
0.45131621 0.46484852 -0.044673014
0.46219143 0.58835018 -0.045046993
0.45153803 0.71031052 -0.040524244
0.45816895 0.83445936 -0.039916385
0.47231004 0.96040738 -0.040993828
0.45532104 1.082462 -0.03502275
0.45547804 1.2076231 -0.032917183
0.45344633 1.3330963 -0.030306133
0.44921064 1.4588462 -0.027186867
0.40472004 1.5759096 -0.015015075
0.21623427 1.6557982 0.029441847
-0.29352057 1.6420474 0.14574757
-0.43467283 1.7173724 0.17930982
-0.4271113 1.8346305 0.17958888
-0.43103251 1.9495984 0.18245423
-0.53865427 2.02934 0.20842758
-0.55538821 2.1398525 0.21414575
-0.92982364 2.1112931 0.29927456
-1.0840423 2.1595039 0.33536655
-2.218688 1.7788713 0.58830893
-2.6064928 1.6905596 0.67548609
-2.7950857 1.681551 0.71847004
-2.8855639 1.7143618 0.73973411
-2.9673569 1.7489722 0.7590428
-3.0837941 1.7624644 0.78591555
-3.2424159 1.7481855 0.8219592
-3.4249437 1.713828 0.86313015
-3.5885673 1.6837745 0.90005088
-3.6672864 1.7012348 0.91836947
-3.7457585 1.7163967 0.93659133
-3.8076928 1.7404217 0.95118463
-1.8092937 3.2327294 0.51962835
-2.2290213 3.0437369 0.61240512
-2.3594115 3.0568974 0.64246011
-2.3886819 3.1461697 0.6506862
-2.1228211 14.811971 0.78775388
-2.9059339 12.895864 0.9344697
-3.3765173 11.946195 1.0260488
-3.5531526 12.113671 1.0692784
-3.6888509 12.493488 1.1067288
-3.8806775 12.646314 1.1531829
-3.129864 -10.571541 0.59531933
-2.9107349 -10.635448 0.54409236
-2.6948519 -10.675833 0.49400672
-2.4900014 -10.674205 0.44715732
-3.189867 -8.2761898 0.64800704
-2.0771708 -10.658606 0.3529495
-1.8616668 -10.662913 0.30355871
-1.6606883 -10.626311 0.25818601
-1.4429802 -10.621879 0.20843706
-1.2325892 -10.594951 0.16074365
-3.1600909 -6.3032756 0.6747399
-2.9564366 -6.4300323 0.62599117
-2.9234459 -6.2290821 0.62186474
-2.7736666 -6.2445488 0.58733451
-1.3802412 -8.3556852 0.23257194
-1.3839647 -8.0291176 0.238977
-1.3919225 -7.7136903 0.24616142
-1.3871512 -7.434093 0.24982615
-1.3903546 -7.1567807 0.25527826
-1.3381331 -6.9704514 0.24649899
-1.3437605 -6.713007 0.25216958
-1.4048144 -6.3953085 0.27155307
-1.3950375 -6.1823673 0.27294254
-1.3469362 -6.0243859 0.26462781
-1.251328 -5.9265976 0.24441448
-1.137874 -5.8493791 0.21976669
-1.0054768 -5.7917032 0.19045046
-0.66959524 -5.9453301 0.11096092
-0.52746719 -5.8850522 0.079460502
-0.45602027 -5.7525582 0.06536641
0.54245079 -6.4989157 -0.17588605
0.56519431 -6.2950721 -0.17762028
0.5904991 -6.0989547 -0.18007252
0.62622988 -5.9166384 -0.18514673
0.67308098 -5.7474113 -0.19298726
0.69320184 -5.5600572 -0.19440103
0.70910442 -5.3737783 -0.19486694
0.74454486 -5.2061172 -0.20012189
0.74442548 -5.016161 -0.19685581
0.78862113 -4.8610277 -0.20432748
0.80512339 -4.6897135 -0.20518415
0.81798357 -4.519331 -0.20522156
0.80211806 -4.3346906 -0.19843858
0.7821669 -4.1520362 -0.19075465
0.74111032 -3.9618852 -0.17811027
0.74750805 -3.8023019 -0.176851
0.70714372 -3.6213517 -0.16451953
0.69790018 -3.4603195 -0.1596531
0.65878677 -3.2882745 -0.14776008
0.64273959 -3.1307218 -0.14139453
0.63245845 -2.9786205 -0.13644186
0.59199113 -2.8168373 -0.12440978
0.59371305 -2.6750181 -0.12238035
0.57438618 -2.5273221 -0.11542951
0.57060719 -2.3875301 -0.11217434
0.55490553 -2.2456536 -0.10615081
0.52715236 -2.1022336 -0.097343303
0.52476442 -1.9685725 -0.094509728
0.49165586 -1.8281119 -0.084524289
0.49372536 -1.6988577 -0.082786098
0.46496239 -1.5635608 -0.073884331
0.45276889 -1.4338626 -0.068870917
0.43823409 -1.30509 -0.063337587
0.44059968 -1.1806287 -0.061746813
0.42152593 -1.0535166 -0.055201441
0.43882078 -0.93274468 -0.057093993
0.43470204 -0.80939436 -0.054037984
0.4478468 -0.68844008 -0.05497491
0.45892951 -0.56728566 -0.055437226
0.45822179 -0.44532767 -0.053185884
0.46516731 -0.32404292 -0.052698646
0.47004816 -0.20266065 -0.051736061
0.47286221 -0.081220657 -0.050299428
0.48335898 0.040314943 -0.050620962
0.49178514 0.16218232 -0.05046206
0.49812925 0.28434733 -0.04982172
0.49265292 0.4061777 -0.046480492
0.50454968 0.52941597 -0.04709316
0.49490738 0.6512993 -0.042794794
0.50257134 0.7752189 -0.042427577
0.49841508 0.89830124 -0.039365798
0.51144022 1.0243804 -0.040188741
0.49337187 1.1462688 -0.033960838
0.50201547 1.2732302 -0.033765193
0.48927578 1.3968778 -0.028728629
0.48392805 1.5225794 -0.025348615
0.42891714 1.6369036 -0.010786859
-0.072055206 1.6327039 0.10391749
-0.37321469 1.666918 0.17350569
-0.37405717 1.7812958 0.17566165
-0.37698826 1.8961269 0.17830551
-0.4375914 1.9924251 0.19384389
-0.5364846 2.0738287 0.21790172
-0.59061342 2.1697273 0.23195158
-0.99158877 2.1255677 0.3230792
-1.0553371 2.2088437 0.3391197
-2.2581391 1.785817 0.60749948
-2.6712322 1.6802036 0.70036489
-2.7972019 1.6977243 0.72954589
-2.878916 1.7335092 0.74889874
-2.9781108 1.757673 0.77205986
-3.1200299 1.7550316 0.80455327
-3.32039 1.7134899 0.8497752
-3.4846442 1.6855847 0.88695776
-3.5886538 1.6888332 0.91086847
-3.658911 1.71032 0.92735666
-3.7290707 1.7298107 0.94378781
-3.782959 1.7586205 0.95665026
-1.7900088 3.2752161 0.5258382
-2.2394629 3.0585582 0.62515604
-2.3617802 3.0760159 0.65350068
-2.399188 3.1583786 0.66349471
-2.7877636 12.741457 0.91611737
-3.129385 12.317736 0.98723733
-3.395083 12.138574 1.0451097
-3.5954406 12.217216 1.0923853
-3.7936318 12.311957 1.1394373
-3.9047701 12.884892 1.1746572
-3.1797805 -10.608993 0.61289793
-2.9670472 -10.655738 0.56333238
-2.7548778 -10.688601 0.51413274
-2.5372801 -10.726478 0.46360162
-2.3448708 -10.685071 0.42019591
-2.1346803 -10.686416 0.37198487
-1.9269902 -10.674255 0.32457644
-1.7145087 -10.667036 0.27598605
-1.5050021 -10.646367 0.22830456
-1.294789 -10.621432 0.18053462
-3.1735034 -6.3398442 0.6842221
-2.9935009 -6.4241276 0.64152372
-2.9501369 -6.2413034 0.63470346
-2.8153574 -6.2322598 0.60396379
-1.3807797 -8.4589224 0.23710646
-1.3910722 -8.1147184 0.24533634
-1.4010072 -7.79036 0.25314611
-1.3879906 -7.5187278 0.25479516
-1.3937905 -7.2326913 0.26100406
-1.3679694 -7.0059361 0.25895426
-1.3716487 -6.7485533 0.26419082
-1.406399 -6.4619713 0.27704886
-1.3884112 -6.2565789 0.27643076
-1.3634406 -6.0679078 0.27392811
-1.2861575 -5.948288 0.25825387
-1.1790068 -5.8649755 0.23511074
-1.0599322 -5.7942882 0.20901908
-0.75985587 -5.9155645 0.13815084
-0.61179364 -5.8649502 0.10506866
-0.49864802 -5.7760615 0.080645941
0.5213083 -6.5589671 -0.16657674
0.60337001 -6.4089279 -0.18283041
0.62382865 -6.2054152 -0.1840477
0.63949043 -6.0031762 -0.18418671
0.68057668 -5.8275313 -0.19060759
0.7101714 -5.646111 -0.19429478
0.72798085 -5.4594164 -0.19519092
0.76516438 -5.291512 -0.20084873
0.8067472 -5.1297174 -0.20761941
0.8127805 -4.945672 -0.20585822
0.81473583 -4.7630143 -0.20318533
0.84561801 -4.6030746 -0.20753343
0.84825379 -4.4280181 -0.20514616
0.83029383 -4.2442923 -0.19788755
0.78277719 -4.0480189 -0.18363602
0.7651096 -3.8736115 -0.17660306
0.75234324 -3.7056594 -0.17080374
0.71855479 -3.5305831 -0.16006184
0.69860059 -3.3663576 -0.15267685
0.67521209 -3.2039578 -0.1445362
0.65740174 -3.0473757 -0.13777114
0.65443414 -2.8999467 -0.13456847
0.61224997 -2.7391937 -0.12214498
0.61244553 -2.5980303 -0.11977291
0.60075241 -2.4544525 -0.11463284
0.59554332 -2.3152075 -0.11105415
0.55978489 -2.168117 -0.10033463
0.54919749 -2.0313342 -0.095565058
0.53605783 -1.8956205 -0.090227164
0.52039182 -1.7610171 -0.084327526
0.50223124 -1.6275717 -0.077877082
0.49113694 -1.4974194 -0.073103622
0.46813694 -1.3662703 -0.06558077
0.46192396 -1.2399073 -0.061990026
0.46309721 -1.1157804 -0.060131673
0.47174984 -0.99341226 -0.060018167
0.4686293 -0.8698594 -0.05718451
0.46336377 -0.74673843 -0.05386626
0.47538373 -0.62585926 -0.054550234
0.48534709 -0.50478649 -0.054758258
0.48351717 -0.38302851 -0.052250657
0.48934489 -0.26186427 -0.051509313
0.4931134 -0.14062479 -0.050293863
0.50456613 -0.019360112 -0.050840028
0.50420535 0.10209012 -0.048674151
0.51152319 0.22384703 -0.048263714
0.52649659 0.34639221 -0.049595505
0.51991194 0.46815944 -0.045996893
0.52097106 0.59063363 -0.044137746
0.52962852 0.71430683 -0.044002324
0.5458256 0.83966029 -0.04556581
0.53084624 0.96166003 -0.040037286
0.51379204 1.0833621 -0.034037396
0.52349728 1.2098967 -0.034090828
0.53095055 1.3370975 -0.033618614
0.51705432 1.4607806 -0.02830877
0.49151328 1.5821203 -0.020366278
0.30292842 1.662061 0.024265291
-0.23510654 1.6404468 0.14731891
-0.35747227 1.7208446 0.17676997
-0.35002324 1.8381078 0.17707679
-0.33548856 1.9592227 0.17582217
-0.44329107 2.0392311 0.20192981
-0.53364944 2.1228001 0.22409464
-0.82564807 2.1251743 0.29112586
-1.0434933 2.1476486 0.34149164
-2.0606513 1.8163273 0.56916118
-2.5293159 1.6927239 0.67456698
-2.7002134 1.6920286 0.71377105
-2.8172379 1.7119839 0.74096954
-2.8990107 1.7463887 0.76032871
-3.0067806 1.7643414 0.78537166
-3.1825166 1.7402903 0.82528633
-3.3648832 1.7055265 0.86654025
-3.5115776 1.6853422 0.8998608
-3.5986409 1.6974714 0.92005414
-3.6770627 1.7124344 0.93831545
-3.7389591 1.736281 0.95293766
-1.7736952 3.2067478 0.52725989
-1.9474623 3.1986639 0.56699705
-2.2524095 3.083241 0.6349923
-2.3515856 3.1177313 0.65834707
-2.7305086 12.44124 0.90526098
-2.8860352 12.714355 0.9456327
-3.2976294 11.986641 1.0276397
-3.5041645 12.027555 1.0757452
-3.6406696 12.397158 1.113404
-3.8481009 12.461206 1.1621108
-3.292753 -10.64411 0.64840138
-3.095221 -10.646859 0.60291445
-2.8759251 -10.712342 0.55132079
-2.6596856 -10.754254 0.50084269
-2.4640026 -10.725854 0.45632392
-3.1646485 -8.2658596 0.66057193
-2.0470419 -10.722738 0.36045566
-1.8349904 -10.719442 0.31172934
-1.6335236 -10.684381 0.26599389
-1.4237416 -10.663496 0.21809687
-1.2090259 -10.647322 0.1689817
-3.1273589 -6.2859945 0.68668741
-2.9482703 -6.3706937 0.64400929
-2.8871169 -6.2233534 0.6325261
-2.7381632 -6.2404175 0.59796417
-1.392785 -8.3121023 0.25215504
-1.395376 -7.9864106 0.25845718
-1.3917341 -7.6886377 0.26283702
-1.3804815 -7.4181538 0.26498899
-1.3935797 -7.1251116 0.27313825
-1.3297918 -6.9563222 0.26142183
-1.340174 -6.6915746 0.26845196
-1.3938119 -6.3820925 0.28621945
-1.3833033 -6.1699982 0.28751996
-1.3411427 -6.005537 0.28070575
-1.2458628 -5.9094539 0.26047108
-1.1393843 -5.8266768 0.23742631
-0.99453032 -5.7858033 0.20481536
-0.67438877 -5.9286866 0.12865297
-0.47811568 -5.9273124 0.083517209
-0.41974524 -5.7816377 0.07264258
0.60742819 -6.5708604 -0.1775395
0.66083556 -6.3937416 -0.1867235
0.68834853 -6.1970577 -0.18960612
0.72615498 -6.014246 -0.19510171
0.75233024 -5.825707 -0.19781905
0.7895301 -5.650445 -0.20330605
0.7996493 -5.4575772 -0.20225313
0.82893395 -5.2837768 -0.20594439
0.87037528 -5.122108 -0.21264538
0.8923769 -4.9494014 -0.21467838
0.87809163 -4.7556839 -0.20799449
0.93356216 -4.6117964 -0.21823464
0.92800969 -4.4312878 -0.21379086
0.89326638 -4.2373986 -0.20239474
0.85413104 -4.0461569 -0.19003336
0.82784778 -3.8670492 -0.18084289
0.82362998 -3.7038002 -0.17700763
0.78980803 -3.5287364 -0.16615257
0.76101387 -3.3602872 -0.15656787
0.74640542 -3.2021275 -0.15043098
0.74646437 -3.0533748 -0.14783296
0.71654332 -2.8943644 -0.13815553
0.6833533 -2.7373846 -0.12776117
0.67437541 -2.5927837 -0.12315664
0.67179286 -2.4526386 -0.12010136
0.64804947 -2.3072 -0.11208166
0.64007711 -2.1692445 -0.10782374
0.62015688 -2.0295401 -0.10078607
0.59758842 -1.8912259 -0.093161948
0.58185029 -1.7567945 -0.087177843
0.5731104 -1.6257823 -0.08286421
0.55246973 -1.493552 -0.075790562
0.53896391 -1.3644888 -0.070414685
0.53272539 -1.23813 -0.066758282
0.52425033 -1.1124287 -0.062598728
0.5328508 -0.99022847 -0.062430393
0.54901099 -0.86930507 -0.064024851
0.55342847 -0.74706376 -0.062893331
0.54604691 -0.6240676 -0.059032433
0.55597824 -0.50298536 -0.05919065
0.55412298 -0.38123167 -0.056622155
0.55018783 -0.25970611 -0.053579964
0.56366199 -0.13882282 -0.054557513
0.56534225 -0.017544826 -0.052811444
0.58444214 0.1040673 -0.055071406
0.59172517 0.22600593 -0.05460481
0.59692764 0.3482191 -0.053653426
0.60004205 0.47067356 -0.052218001
0.60106039 0.59332037 -0.050296143
0.59997511 0.71614206 -0.047887918
0.60646486 0.84029073 -0.047198258
0.60113698 0.96349305 -0.043806244
0.58406073 1.085192 -0.037735768
0.59373009 1.2117351 -0.037737653
0.59157974 1.337033 -0.035039611
0.58723092 1.462617 -0.031831339
0.54265559 1.579468 -0.01951482
0.36363113 1.6614107 0.023141041
-0.16483383 1.6420044 0.14446598
-0.27781552 1.7250997 0.17194027
-0.2797766 1.8396252 0.17440665
-0.2931169 1.9515007 0.17944697
-0.2807771 2.0731866 0.17874734
-0.40839434 2.1447151 0.20938821
-0.70980364 2.1443968 0.27878156
-1.0184529 2.1302223 0.34960002
-2.0170383 1.8055121 0.57381564
-2.4675412 1.6893708 0.67550755
-2.6206348 1.6968883 0.7108978
-2.7289326 1.7213342 0.73627079
-2.8369584 1.7424269 0.76152313
-2.9360108 1.7648757 0.7847333
-3.1117053 1.7407597 0.82477343
-3.3447995 1.67597 0.8773188
-3.449064 1.6805445 0.90141672
-3.5277348 1.6977843 0.91984385
-3.5897467 1.723593 0.93458873
-3.6599298 1.7421302 0.95108533
-1.8877268 3.0760186 0.56644017
-1.734831 3.305259 0.53526479
-2.2367744 3.0419955 0.64623129
-2.3043869 3.100081 0.66282755
-2.3727703 3.1566663 0.67957646
-2.668046 12.422661 0.91028923
-2.8104541 12.743898 0.94872195
-3.1910346 12.142254 1.0258408
-3.4046612 12.164262 1.0754361
-3.6140051 12.201883 1.1243172
-3.8009443 12.353471 1.1700351
-3.9210124 12.905678 1.2073697
-3.1602829 -10.674107 0.6218214
-2.9443853 -10.731972 0.57109141
-2.7316704 -10.766348 0.52150738
-2.5264111 -10.768058 0.47421241
-3.2163341 -8.2737703 0.67693573
-2.1196277 -10.740555 0.38102424
-1.9115152 -10.73001 0.33328637
-1.69866 -10.724434 0.2843675
-1.4926701 -10.696283 0.23742589
-1.2779434 -10.682068 0.18822673
-3.1554253 -6.3129687 0.69745964
-2.9680898 -6.416986 0.65250075
-2.9330084 -6.2172713 0.64795011
-2.78475 -6.2359757 0.6134907
-1.3935814 -8.4318371 0.25446606
-1.4021809 -8.0882597 0.26250088
-1.4053748 -7.7729993 0.26879331
-1.401774 -7.4854546 0.27303404
-1.3954957 -7.2167401 0.27632734
-1.3462704 -7.0234761 0.26840276
-1.3770053 -6.72616 0.280727
-1.4104426 -6.4401283 0.29347667
-1.4038618 -6.2200847 0.29584834
-1.3601422 -6.0558786 0.28868258
-1.2890573 -5.9300838 0.27453682
-1.1758063 -5.8560739 0.24976696
-1.0570171 -5.7872 0.22363126
-0.79887027 -5.8682804 0.16275311
-0.62478268 -5.8490338 0.12300337
-0.39436236 -5.8814273 0.069367684
-0.31597051 -5.7557664 0.053534169
0.68273497 -6.5012221 -0.18964797
0.70548016 -6.2972417 -0.19128425
0.72340238 -6.0944777 -0.19183215
0.76651579 -5.9184971 -0.19865391
0.79058027 -5.7304211 -0.20087296
0.81038755 -5.5433264 -0.20212962
0.8415907 -5.369225 -0.20623989
0.88483948 -5.2073526 -0.21333984
0.90873188 -5.034265 -0.21578319
0.91271251 -4.8509021 -0.2134577
0.9454146 -4.6904793 -0.21815275
0.9417026 -4.5094833 -0.21409602
0.95077783 -4.3402443 -0.21319151
0.89707053 -4.1375847 -0.19723439
0.8728472 -3.9573333 -0.1884623
0.87053674 -3.7931261 -0.18502203
0.8300088 -3.6123662 -0.17248522
0.81183541 -3.4471855 -0.16537252
0.78134865 -3.2796423 -0.15538119
0.76515716 -3.1222692 -0.1488611
0.76371676 -2.9741733 -0.14590475
0.7322284 -2.8160946 -0.13584742
0.71571726 -2.667099 -0.12940148
0.70542878 -2.522922 -0.12447444
0.68313164 -2.3767824 -0.11674391
0.66725153 -2.2352509 -0.11057415
0.65799576 -2.097878 -0.10600388
0.6367873 -1.9588673 -0.09865021
0.62237144 -1.8237953 -0.092930757
0.61491054 -1.692192 -0.088875413
0.5860498 -1.5571027 -0.07982678
0.5737564 -1.4275819 -0.074693888
0.55912709 -1.2989933 -0.069039747
0.56140149 -1.1747084 -0.067354865
0.56150514 -1.0507512 -0.065176107
0.56910235 -0.92847914 -0.064755216
0.56492668 -0.8051396 -0.061600611
0.5780049 -0.68418354 -0.062465433
0.57931 -0.56222302 -0.060600206
0.57853323 -0.44045159 -0.058255386
0.57567292 -0.31889346 -0.055436358
0.5902155 -0.19812849 -0.056642346
0.59296489 -0.076858625 -0.055121865
0.60339737 0.044506676 -0.055369075
0.61176288 0.16620468 -0.055133775
0.60831404 0.28776634 -0.052178837
0.62225461 0.41044831 -0.053212948
0.62436885 0.53291267 -0.051523704
0.62438709 0.65556943 -0.04934803
0.62229955 0.77836126 -0.046684437
0.62777096 0.90256256 -0.045739762
0.62143868 1.0257111 -0.042092055
0.61298865 1.1488818 -0.037955973
0.63118172 1.2774931 -0.03986593
0.61838645 1.4011227 -0.034720074
0.60345751 1.5246609 -0.029082701
0.53895533 1.636444 -0.012228524
0.038232442 1.6315308 0.10312643
-0.2439528 1.6705101 0.16888088
-0.24484962 1.784885 0.171123
-0.27575937 1.8907127 0.18013267
-0.28070214 2.0054595 0.18331313
-0.33376196 2.1039302 0.19729969
-0.40666512 2.1941071 0.21571448
-0.86234266 2.1286805 0.31962913
-0.98022902 2.1889873 0.34788945
-2.1999283 1.7561467 0.62146777
-2.5323031 1.6861987 0.69688541
-2.6406782 1.7123877 0.72235638
-2.7488225 1.7352135 0.74771518
-2.8653224 1.7500806 0.77486122
-2.9984405 1.7517853 0.80560791
-3.2241373 1.6951878 0.85667056
-3.3711386 1.6766884 0.89026296
-3.4582751 1.689998 0.91061312
-3.5285139 1.7114375 0.92721289
-3.5986536 1.7308735 0.94375294
-1.968762 2.9420321 0.58932012
-1.7645096 3.2023053 0.54683232
-1.9451653 3.1854892 0.5882113
-2.2712977 3.0476735 0.66100311
-2.3388271 3.1044443 0.67759633
-2.3391724 3.2169142 0.67967916
-2.2901187 3.3757005 0.67118639
-2.745501 12.444437 0.93623006
-2.9475832 12.541702 0.98455471
-3.3142622 11.955046 1.0588356
-3.5049856 12.062073 1.1047148
-3.6428807 12.440181 1.1431665
-3.8347292 12.590777 1.1900678
-3.2231121 -10.681545 0.64339602
-3.0137274 -10.722281 0.59440523
-2.7990777 -10.768252 0.54410839
-2.5850139 -10.800304 0.49419105
-3.2507455 -8.3093452 0.69147253
-3.113219 -8.2461376 0.66088033
-1.9736813 -10.758403 0.35397729
-1.7610252 -10.754768 0.30501044
-1.5628915 -10.710228 0.26010972
-1.3445226 -10.707188 0.20981382
-3.1813285 -6.3307085 0.71029335
-2.9951038 -6.4364486 0.66550189
-2.9631052 -6.2282896 0.66179198
-2.8294425 -6.2222304 0.63108712
-1.3948051 -8.543375 0.25946936
-1.4093773 -8.1818733 0.26919118
-1.403994 -7.874517 0.27336112
-1.4075818 -7.5695763 0.27955675
-1.4092312 -7.2838507 0.28496706
-1.4080064 -7.0169802 0.28938568
-1.3802289 -6.8009338 0.28678694
-1.4107826 -6.5141954 0.29888332
-1.4138126 -6.2780147 0.30374315
-1.3868077 -6.0906558 0.30081967
-1.3211037 -5.9579372 0.28801003
-1.2139268 -5.8776059 0.26471591
-1.1015114 -5.8026929 0.24011672
-0.9107691 -5.8133554 0.19595152
-0.61707902 -5.9268641 0.12623413
-0.42768508 -5.9183536 0.082715347
-0.34855211 -5.7936354 0.066667072
0.671875 -6.5754461 -0.18240438
0.7397604 -6.4115806 -0.19517048
0.7528969 -6.2013602 -0.19449678
0.78332835 -6.0119815 -0.19817598
0.82453257 -5.8360329 -0.20457636
0.8465836 -5.6481614 -0.2063513
0.86440116 -5.4613214 -0.20716558
0.901591 -5.2932568 -0.21277817
0.94317889 -5.1312947 -0.21951337
0.95726842 -4.9526963 -0.21961288
0.95117104 -4.7643027 -0.21488467
0.99853563 -4.6147966 -0.22317031
0.99302244 -4.434145 -0.21871185
0.93306696 -4.2251091 -0.20119792
0.91921127 -4.048737 -0.19489194
0.89296097 -3.8694947 -0.18567452
0.88877517 -3.7060883 -0.18182614
0.86372316 -3.5352769 -0.17303434
0.82621765 -3.3622928 -0.16133024
0.80275553 -3.1999066 -0.15305261
0.82067645 -3.0589874 -0.15469739
0.78182536 -2.8959098 -0.14285822
0.75773877 -2.7423735 -0.13459177
0.74884242 -2.5974622 -0.12998012
0.73713815 -2.453727 -0.12474122
0.73191285 -2.3143184 -0.1210736
0.70544863 -2.1700113 -0.11242122
0.69489449 -2.0329115 -0.10756491
0.66298002 -1.8916802 -0.097707644
0.6472531 -1.7570884 -0.091701008
0.62903315 -1.6236619 -0.085140489
0.60835743 -1.4914391 -0.078034073
0.60437238 -1.3643004 -0.074867837
0.58854365 -1.2360322 -0.068948627
0.58965367 -1.1119026 -0.06701038
0.58860201 -0.98813784 -0.064578101
0.5950613 -0.86598343 -0.063907973
0.59942633 -0.74391901 -0.06275586
0.61139816 -0.62285328 -0.063375831
0.60187507 -0.50019342 -0.059010856
0.61943233 -0.379673 -0.060927916
0.62520772 -0.25833866 -0.060113888
0.62891811 -0.13692249 -0.058822338
0.63056332 -0.015471707 -0.057054341
0.6301468 0.10598314 -0.054809187
0.64714104 0.22808407 -0.05656841
0.64257646 0.34977683 -0.05336374
0.64566648 0.47205317 -0.051912986
0.65637141 0.59539855 -0.052201923
0.65525717 0.71820605 -0.049771011
0.66170907 0.84236181 -0.04906426
0.67566061 0.96832955 -0.050054058
0.63924468 1.0872422 -0.039549001
0.64888173 1.213786 -0.039533406
0.65627205 1.3409895 -0.038987968
0.6327765 1.4625834 -0.031417254
0.61672246 1.5859835 -0.025530599
0.39975563 1.6585532 0.025809264
-0.10971615 1.6438084 0.14309123
-0.21333034 1.7296184 0.16851501
-0.2153679 1.8443073 0.17101575
-0.2751911 1.9409262 0.18652894
-0.27189854 2.0586941 0.18785599
-0.16994736 2.2147114 0.16709438
-0.59097135 2.1710577 0.26346624
-0.98147446 2.1242716 0.35274196
-2.1235356 1.7365136 0.60939813
-2.4211149 1.6863914 0.67718095
-2.5741255 1.6937029 0.71262389
-2.6735687 1.7223378 0.73608285
-2.772886 1.7479231 0.75946188
-2.8806341 1.7658069 0.78464848
-3.056303 1.7416366 0.82476532
-3.2978215 1.6717814 0.87927032
-3.3936124 1.6813198 0.90155327
-3.4639885 1.7038189 0.91820186
-3.5342917 1.7243242 0.93479693
-3.596369 1.7484218 0.9495585
-1.9609134 2.9855731 0.59403664
-1.7669746 3.2419364 0.55381995
-2.1193275 3.0912158 0.63247252
-2.2725327 3.0827243 0.66768348
-2.3634095 3.1200116 0.68931997
-2.3344872 3.2577503 0.68508583
-2.301734 3.4039905 0.68011838
-2.7680373 12.706135 0.9518804
-3.0157506 12.637704 1.0078486
-3.394242 11.979869 1.0836227
-3.6024892 12.006934 1.1321644
-3.7442491 12.373667 1.1713407
-3.9064279 12.689608 1.2143353
-3.2598243 -10.717266 0.66127151
-3.0588183 -10.731032 0.61461174
-2.839124 -10.798067 0.56269109
-2.6314571 -10.813038 0.51446992
-3.2861202 -8.2880688 0.71044093
-3.1455052 -8.2357416 0.67890352
-2.0137303 -10.795485 0.37213424
-1.8121344 -10.766007 0.32610241
-1.5987387 -10.7601 0.27692753
-1.3962148 -10.722507 0.23082522
-3.1798279 -6.3662195 0.72003943
-3.0762148 -6.3034711 0.69723415
-2.9515285 -6.2833185 0.66880649
-2.8496456 -6.2166634 0.64647031
-1.3924652 -8.6290989 0.26712644
-1.3885292 -8.2928858 0.27219063
-1.3894958 -7.9678092 0.27819002
-1.4000356 -7.6454148 0.28635514
-1.3880188 -7.3759832 0.28836992
-1.3946607 -7.0920544 0.29495168
-1.3363947 -6.9165626 0.28461796
-1.345996 -6.6527605 0.29152802
-1.380777 -6.3676863 0.30463096
-1.3755121 -6.1486101 0.30731446
-1.3330808 -5.9853816 0.30042294
-1.2191999 -5.913826 0.27540046
-1.1255579 -5.8175468 0.25549251
-0.98783618 -5.771348 0.22451244
-0.75003356 -5.8308296 0.16854034
-0.49506247 -5.897758 0.10846844
-0.31230581 -5.8801446 0.066578068
-0.24103986 -5.7475839 0.052481446
0.77184772 -6.5064077 -0.19494389
0.80914032 -6.3155465 -0.20015928
0.82729864 -6.1123891 -0.20073777
0.86315995 -5.9296474 -0.20576532
0.89493513 -5.7475176 -0.20986293
0.9149636 -5.5600171 -0.21114828
0.93857634 -5.3795404 -0.2133874
0.97402716 -5.2115769 -0.21858323
1.005931 -5.0440121 -0.22296649
1.0181099 -4.8658834 -0.22260536
1.0346148 -4.6942749 -0.22335921
1.04747 -4.5235844 -0.22328682
1.0483432 -4.3488274 -0.22037444
1.0031847 -4.1508164 -0.2064129
0.97912157 -3.9701259 -0.19763206
0.9683435 -3.8008397 -0.19212437
0.9365893 -3.6242523 -0.18163964
0.90977883 -3.4543071 -0.17241557
0.87935948 -3.286464 -0.16239375
0.86322117 -3.1287789 -0.15585268
0.84386516 -2.9727037 -0.14859673
0.82134539 -2.8183124 -0.14063723
0.81392741 -2.6726687 -0.13632326
0.79451317 -2.5248396 -0.12919767
0.77218753 -2.3785408 -0.12142938
0.765567 -2.2398586 -0.11742184
0.74700433 -2.099324 -0.11062276
0.7257691 -1.9601613 -0.10323014
0.71131933 -1.8249238 -0.097475208
0.69436353 -1.6908309 -0.091161676
0.67493337 -1.5579147 -0.084296972
0.66260052 -1.4282376 -0.079129666
0.64793164 -1.2994926 -0.07343825
0.6501596 -1.1750374 -0.071727186
0.65021682 -1.05091 -0.069520332
0.6481123 -0.9271633 -0.06682013
0.65353608 -0.80496806 -0.065887034
0.65686554 -0.68287843 -0.064471684
0.667808 -0.56171548 -0.064832248
0.66696799 -0.43976998 -0.062456422
0.66404599 -0.31804508 -0.059602357
0.67852563 -0.19710611 -0.060783051
0.68120772 -0.075678721 -0.059228603
0.68182272 0.045774981 -0.05719766
0.69011277 0.1674713 -0.056935519
0.69632977 0.28945971 -0.056187574
0.70046246 0.41170606 -0.054954737
0.71222079 0.53494543 -0.055465441
0.70244908 0.65681744 -0.051026229
0.71966225 0.78185314 -0.052764684
0.7153576 0.90510017 -0.049563274
0.69928986 1.0269347 -0.043670475
0.70038611 1.1517454 -0.041688677
0.70889074 1.278708 -0.041381538
0.69602484 1.4023296 -0.036196075
0.690548 1.52802 -0.032679982
0.61646783 1.6376158 -0.013599379
0.16297483 1.6450628 0.091328368
-0.1476488 1.6768113 0.16367981
-0.13934885 1.7943467 0.16386841
-0.16116351 1.9036649 0.17086901
-0.26817042 1.9842203 0.19704276
-0.14612952 2.1448495 0.17171577
-0.24719903 2.2264814 0.19653809
-0.66707474 2.1770449 0.29269072
-0.94815409 2.1706331 0.35754049
-2.0778239 1.7765111 0.61157066
-2.4727294 1.6782825 0.70108962
-2.5633724 1.7127196 0.72266525
-2.6628158 1.7399734 0.7461468
-2.78809 1.7503515 0.77529645
-2.9212432 1.7520262 0.80611259
-3.1469531 1.6953659 0.85727793
-3.285563 1.6819056 0.88908714
-3.3894868 1.6848974 0.91317189
-3.4431973 1.7169025 0.92617261
-3.5053241 1.7419871 0.94099343
-1.9324443 2.9141867 0.59841388
-1.7516919 3.1563845 0.56097305
-1.7901275 3.2453761 0.57145613
-2.1715598 3.0662916 0.65642792
-2.2853627 3.0861361 0.68309706
-2.3684595 3.1282716 0.70306665
-2.325397 3.2787027 0.69581044
-2.6878541 12.386718 0.94221157
-2.8542371 12.619166 0.98481542
-3.2152004 12.061932 1.0583453
-3.4249907 12.091269 1.1073706
-3.6269886 12.155951 1.1552225
-3.7958529 12.403842 1.1986767
-3.9377561 12.856364 1.2395388
-3.3274436 -10.752737 0.6801976
-3.1290731 -10.75865 0.6342566
-2.9184091 -10.798965 0.58486062
-2.7084241 -10.825463 0.53586805
-3.3417885 -8.2947474 0.72738707
-3.1912034 -8.2719851 0.6930021
-2.0881786 -10.823135 0.39259124
-1.8865263 -10.79553 0.34648857
-1.6732734 -10.791606 0.29728168
-1.4745476 -10.746761 0.25216237
-1.2555891 -10.743401 0.20162651
-3.1257286 -6.2949953 0.71320343
-2.9576685 -6.3653798 0.67311966
-2.8951554 -6.2196774 0.66128337
-2.7522917 -6.2311735 0.6280722
-1.3851866 -8.4307737 0.27288136
-1.396715 -8.0789948 0.2818329
-1.4033562 -7.7557812 0.28914484
-1.398442 -7.468924 0.29313836
-1.4072309 -7.1760712 0.30040592
-1.3467818 -7.0006094 0.28957671
-1.3762188 -6.7038422 0.30168679
-1.3967805 -6.4343357 0.31125984
-1.4011819 -6.1992283 0.31648508
-1.3633424 -6.0284972 0.31079721
-1.2675647 -5.9349775 0.29034162
-1.1671556 -5.8474269 0.26871052
-1.0552756 -5.7729626 0.24419202
-0.85845238 -5.7913861 0.19838417
-0.65273833 -5.8116703 0.15048799
-0.37615964 -5.8970571 0.085051864
-0.29740563 -5.7727027 0.069080994
0.75807428 -6.5888753 -0.18942611
0.81895566 -6.4180489 -0.20043792
0.85416198 -6.2273932 -0.20516124
0.87014252 -6.0246196 -0.20522419
0.90400368 -5.8421106 -0.20978163
0.93379873 -5.6602635 -0.21341011
0.96731472 -5.485188 -0.21802062
0.98132336 -5.2989168 -0.21792156
1.0309477 -5.1425495 -0.2265884
1.0452131 -4.9636731 -0.22668125
1.039291 -4.7749848 -0.22193237
1.0868253 -4.6251874 -0.23023196
1.0814762 -4.4442444 -0.22575332
1.021685 -4.2349243 -0.20818378
1.0079877 -4.0582538 -0.20185229
0.99905306 -3.888103 -0.19673632
0.97785169 -3.7150052 -0.18873259
0.94420558 -3.5394967 -0.1778089
0.91557479 -3.3705978 -0.16816296
0.90112674 -3.2119744 -0.16197859
0.90133768 -3.0627522 -0.15934986
0.87156326 -2.9032729 -0.14960758
0.8566758 -2.7530079 -0.14346927
0.83881003 -2.6041791 -0.13666938
0.81801212 -2.4568622 -0.12921764
0.81283069 -2.3173006 -0.12551522
0.78641337 -2.1728396 -0.11681455
0.76654577 -2.0328143 -0.10970835
0.75342387 -1.8967781 -0.10423206
0.71888787 -1.7570075 -0.093738966
0.71962476 -1.6280861 -0.091594093
0.69901997 -1.495531 -0.084448986
0.69509703 -1.3680545 -0.081251293
0.68891144 -1.2411945 -0.077541955
0.68047988 -1.1149863 -0.073325261
0.67947364 -0.99087995 -0.070860513
0.6763075 -0.86716169 -0.067905046
0.69036484 -0.74597585 -0.068976462
0.70236176 -0.62456554 -0.069565974
0.71229631 -0.50297076 -0.069675848
0.7104308 -0.38069957 -0.067046396
0.69674271 -0.25830713 -0.061681289
0.71018922 -0.13707572 -0.062608153
0.71183002 -0.015452094 -0.060800474
0.73088562 0.10651197 -0.063011594
0.72838426 0.22844572 -0.060239661
0.74327183 0.35134223 -0.061470229
0.73659945 0.47344571 -0.057732981
0.73756582 0.59626251 -0.055747014
0.74611998 0.7202912 -0.055494115
