# .PCD v0.7 - Point Cloud Data file format
VERSION 0.7
FIELDS x y z
SIZE 4 4 4
TYPE F F F
COUNT 1 1 1
WIDTH 1500
HEIGHT 1
VIEWPOINT 0 0 0 1 0 0 0
POINTS 1500
DATA ascii
2.1661971 -11.005758 0.19348019
2.3271527 -10.863662 0.15426652
2.4932704 -10.737102 0.11354095
2.6654251 -10.625675 0.071084857
2.8262749 -10.493709 0.031769074
2.9748931 -10.341749 -0.0041733445
3.1103516 -10.170374 -0.036514729
-2.5252004 -13.261758 1.3765109
-2.3020954 -13.198976 1.3203609
-2.0817714 -13.112233 1.2652216
-1.8632653 -13.041576 1.2103437
-1.6442769 -13.006958 1.1548902
-1.4296194 -12.928599 1.1010917
-1.2142686 -12.876319 1.0467888
-1.0026979 -12.800393 0.99374658
-0.79327142 -12.72079 0.94129729
2.0645046 -11.152384 0.23162149
2.2091384 -10.967055 0.19703551
2.3899024 -10.87044 0.1521105
2.5646157 -10.761695 0.10888281
2.7195621 -10.614411 0.071184456
2.8802054 -10.482479 0.031838987
3.0333109 -10.339285 -0.0054407446
3.1396184 -10.116016 -0.029767826
-2.3661625 -13.250401 1.3504604
-2.1445186 -13.155622 1.2949973
-1.9238895 -13.106867 1.2392259
-1.7065639 -13.024259 1.1847168
-1.4895482 -12.967739 1.1299638
-1.2732521 -12.917334 1.0753191
-1.0594332 -12.853177 1.0214775
-0.84992898 -12.765449 0.96902895
-0.63431853 -12.733424 0.91433221
2.0247288 -11.211329 0.25368753
2.1751049 -11.036313 0.21742536
2.3450897 -10.913846 0.17550264
2.5248978 -10.815674 0.13076888
2.6855724 -10.678632 0.091406681
2.8476341 -10.547976 0.051609103
3.0022476 -10.405987 0.013855602
3.148931 -10.252985 -0.02173453
3.2626121 -10.046313 -0.048225936
-2.4474406 -13.30087 1.3797297
-2.2238758 -13.228039 1.3234124
-2.0027506 -13.151235 1.2677666
-1.7851485 -13.050551 1.2133147
-1.5653448 -13.025852 1.1573713
-1.3495493 -12.95738 1.1029859
-1.1347525 -12.895068 1.0487816
-0.92407829 -12.809138 0.99591804
-0.71452904 -12.729468 0.9432655
1.9735581 -11.287776 0.27288565
2.1221669 -11.10463 0.2370806
2.2935719 -10.983459 0.19468425
2.4623013 -10.859521 0.15300722
2.6283045 -10.732869 0.11205947
2.80035 -10.621354 0.069378614
2.956533 -10.480494 0.031115804
3.1095784 -10.337267 -0.006314544
3.2158146 -10.11397 -0.030787984
-2.3662193 -13.330094 1.3783665
-2.1423998 -13.247177 1.3217813
-1.9206603 -13.180267 1.2655388
-1.7021221 -13.089464 1.2104065
-1.4823813 -13.054666 1.1542909
-1.2670017 -12.976113 1.0998222
-1.050917 -12.923625 1.0448586
-0.83980972 -12.837556 0.99157953
-0.62169087 -12.817121 0.93570459
2.0240691 -11.211311 0.27427483
2.2016764 -11.102161 0.22988592
2.3769608 -10.990047 0.18613201
2.5498667 -10.875017 0.14302269
2.7161043 -10.748157 0.10177345
2.8795741 -10.61864 0.061267693
3.0311313 -10.468911 0.024071785
3.1933572 -10.343163 -0.016160401
-2.2195597 -13.318743 1.3490059
-1.9966694 -13.233771 1.2925806
-1.776588 -13.144861 1.2369266
-1.5563743 -13.101972 1.1806848
-1.3397253 -13.025266 1.1257676
-1.123526 -12.964668 1.0707716
-0.91125512 -12.880404 1.0170734
-0.7001673 -12.802374 0.96360296
1.9691163 -11.26821 0.29397359
2.1478946 -11.160494 0.24918036
2.3243682 -11.04979 0.20501593
2.4984927 -10.936143 0.16149323
2.6660364 -10.810601 0.11980806
2.8394964 -10.700235 0.076414779
2.9973304 -10.560373 0.037403721
3.1474075 -10.409348 0.00052661326
-2.3058794 -13.379353 1.3784304
-2.081507 -13.286365 1.3216009
-1.8595446 -13.209389 1.2652059
-1.6385369 -13.158436 1.2087466
-1.4197719 -13.093586 1.1530318
-1.2055328 -12.995004 1.0988846
-0.9912582 -12.922544 1.0444176
-0.77906823 -12.84634 0.9905321
2.0892723 -11.227977 0.26903871
2.2632935 -11.10946 0.22550261
2.4425771 -11.006353 0.18042488
2.6074812 -10.873047 0.13941783
2.7821207 -10.764081 0.095607646
2.9369745 -10.616589 0.057363302
3.1020865 -10.493252 0.01618286
3.2552459 -10.349767 -0.021672349
-2.1384721 -13.347869 1.3523138
-1.9154211 -13.252872 1.2957689
-1.6946507 -13.17391 1.2396258
-1.474 -13.130971 1.1830975
-1.2569197 -13.054206 1.1278836
-1.0412307 -12.983589 1.0729581
-0.82870317 -12.899267 1.019009
2.0554235 -11.285508 0.29233393
2.2344403 -11.177648 0.24731696
2.4072785 -11.057637 0.20403931
2.5814838 -10.943902 0.16033569
2.7491076 -10.818268 0.11847045
2.9183135 -10.698878 0.076123491
3.0850387 -10.576706 0.034450859
3.2399688 -10.434267 -0.0039385785
3.3917401 -10.28949 -0.041483682
-2.0760484 -13.376646 1.359674
-1.8525171 -13.281627 1.3029004
-1.6303829 -13.222611 1.246094
-1.4101158 -13.159655 1.1898123
-1.1925503 -13.082842 1.134383
-0.97825527 -12.992267 1.0799502
-0.76558387 -12.907914 1.0258682
2.117058 -11.284061 0.29808611
2.292335 -11.166965 0.25403506
2.4727364 -11.065318 0.20848686
2.6430411 -10.942419 0.16578449
2.8189983 -10.834788 0.12145136
2.9754875 -10.688447 0.082581058
3.146512 -10.575191 0.03958451
3.3014162 -10.432737 0.0010808597
3.4722729 -10.32268 -0.041908178
-2.0020192 -13.415346 1.3654104
-1.7781239 -13.310279 1.3085135
-1.5546445 -13.271181 1.2510346
-1.3353916 -13.178205 1.1952134
-1.1175294 -13.10133 1.1395838
-0.90200073 -13.020638 1.0845983
-0.68663698 -12.956052 1.029487
2.0187473 -11.414987 0.34478101
2.2004271 -11.309942 0.29881287
2.3724034 -11.183403 0.25558448
2.5492001 -11.072434 0.21094435
2.7276669 -10.967599 0.1658058
2.8914897 -10.832697 0.12477586
3.0522561 -10.695257 0.084564067
3.2189035 -10.573048 0.042669173
3.3737521 -10.430568 0.0040419581
3.5493486 -10.329163 -0.0403894
-1.9238529 -13.454861 1.3638157
-1.699315 -13.349736 1.3065629
-1.4769427 -13.270617 1.2496018
-1.2571124 -13.187575 1.1933405
-1.0375504 -13.130576 1.1368796
-0.82249153 -13.039847 1.0819377
-0.59343916 -13.094341 1.0218493
2.0959489 -11.413742 0.34043866
2.274044 -11.299374 0.29534611
2.4495578 -11.182088 0.25095299
2.6263287 -11.071083 0.20616767
2.8047705 -10.966215 0.1608831
2.9769351 -10.849296 0.1173557
3.1336434 -10.702743 0.078154445
3.3093889 -10.598114 0.033568144
3.4600229 -10.446597 -0.0040024365
3.631109 -10.336307 -0.047319446
-2.0043373 -13.505802 1.3914596
-1.7781289 -13.40267 1.3336644
-1.5535852 -13.345492 1.2758234
-1.3329817 -13.244386 1.2194644
-1.1128429 -13.179315 1.1628513
-0.89294624 -13.130278 1.1061323
-0.67955792 -13.027639 1.0516663
2.0448308 -11.488107 0.35861391
2.2244687 -11.375084 0.31303179
2.3979063 -11.249855 0.2691907
2.5760303 -11.140233 0.22396529
2.7478657 -11.018516 0.18050431
2.9211209 -10.903059 0.13660637
3.0834274 -10.766802 0.095775887
3.2514861 -10.645812 0.053288069
3.4170299 -10.522063 0.011482869
3.5894432 -10.413052 -0.032265909
-1.8671942 -13.464664 1.3622493
-1.6420369 -13.37951 1.3044149
-1.4196919 -13.290371 1.2473545
-1.1983911 -13.227255 1.1902963
-0.97980517 -13.150258 1.1340883
-0.76449728 -13.059485 1.0788782
-0.53408098 -13.123857 1.0181146
1.6368748 -11.852637 0.46507674
1.9799653 -11.552974 0.37869617
2.1541641 -11.422701 0.33460841
2.3323305 -11.308266 0.28932053
2.5116422 -11.200125 0.24366859
2.6808908 -11.070677 0.20086317
2.8592525 -10.965805 0.1554227
3.0271504 -10.839872 0.11293071
3.1879663 -10.70232 0.072407089
3.3636279 -10.59769 0.02766663
3.5234532 -10.463694 -0.012636681
3.6804082 -10.327191 -0.052166481
-1.9282839 -13.535636 1.392511
-1.7020166 -13.412549 1.334639
-1.4770306 -13.365407 1.2763212
-1.2556401 -13.274315 1.2193925
-1.0357699 -13.199285 1.1626979
-0.81820405 -13.120395 1.1066424
-0.59270477 -13.137099 1.0475324
1.6114047 -11.962287 0.48347795
2.1227965 -11.498258 0.35456565
2.2955663 -11.366582 0.31075436
2.4687934 -11.24146 0.26675573
2.650501 -11.141139 0.22028467
2.8262355 -11.028582 0.1755005
2.9872725 -10.88597 0.13486639
3.1620007 -10.77681 0.090308405
3.3301597 -10.655787 0.047591027
3.4866867 -10.514384 0.0081218649
3.6636038 -10.414227 -0.037102185
-1.7955692 -13.494678 1.3658255
-1.5701451 -13.399628 1.3077884
-1.3474323 -13.310582 1.2503985
-1.1263806 -13.237576 1.1932838
-0.90604812 -13.180606 1.136193
-0.68831831 -13.109792 1.0799226
1.5466472 -12.052806 0.50563085
1.7117743 -11.863932 0.46431822
2.0553255 -11.564338 0.37742311
2.2331505 -11.443446 0.33209801
2.4081283 -11.319688 0.28754786
2.5802157 -11.193133 0.24378133
2.7571166 -11.082152 0.19859798
2.9276326 -10.959137 0.15520594
3.095444 -10.833367 0.11254923
3.2648365 -10.713839 0.069415465
3.4407008 -10.609221 0.024435103
3.6007473 -10.475234 -0.016106319
-1.8768573 -13.545541 1.399164
-1.6498598 -13.452581 1.3405659
-1.4249197 -13.385571 1.2822546
-1.2031878 -13.294599 1.2250185
-0.98367518 -13.209708 1.1683036
-0.76594013 -13.130933 1.1119959
1.5004566 -12.171213 0.52723694
1.634503 -11.868812 0.49506453
1.9984857 -11.62939 0.40198722
2.1744297 -11.500596 0.35712337
2.3437529 -11.359697 0.31411424
2.5241237 -11.253254 0.267869
2.7022076 -11.143783 0.22225273
2.877964 -11.031328 0.17727567
3.0513389 -10.915947 0.13295144
3.2180376 -10.78872 0.090494305
3.3819695 -10.658825 0.048788112
3.5521953 -10.543946 0.0052837604
3.69666 -10.382549 -0.031009017
-1.7166175 -13.503923 1.3772095
-1.4905208 -13.42899 1.3185455
-1.2668966 -13.350047 1.2605668
-1.0452081 -13.277127 1.2030402
-0.82424229 -13.220232 1.1455545
-0.60399497 -13.169379 1.0882018
-0.3773835 -13.18414 1.028571
1.5947289 -11.94861 0.52223158
1.9593108 -11.702579 0.42878386
2.1337667 -11.565776 0.38424608
2.3115838 -11.444983 0.33867693
2.4794378 -11.302739 0.29592136
2.6623406 -11.204084 0.24880968
2.8316457 -11.074818 0.20555189
2.997977 -10.942883 0.16309974
3.1696479 -10.826366 0.11910231
3.3475304 -10.724871 0.073332287
3.5056229 -10.58486 0.03311668
3.6744692 -10.468744 -0.010143977
-1.8052434 -13.584501 1.4104252
-1.5777701 -13.481634 1.3515419
-1.3527007 -13.404717 1.293058
-1.1311673 -13.303844 1.2357181
-0.90944862 -13.24896 1.1779188
-0.69192094 -13.160267 1.1215209
-0.46482071 -13.187084 1.061574
1.5342368 -12.037252 0.54625726
1.7228279 -11.926661 0.49765936
1.9147257 -11.831954 0.44804898
2.0697658 -11.630093 0.40908781
2.2490237 -11.510757 0.36302024
2.4219809 -11.379196 0.31871894
2.5917525 -11.24493 0.275278
2.7734659 -11.144797 0.2283913
2.9413233 -11.014183 0.18542057
3.1184828 -10.908075 0.1397838
3.2807784 -10.772027 0.09832333
3.4576082 -10.669044 0.052743863
3.6188765 -10.536534 0.011520635
-1.6699486 -13.533365 1.3845646
-1.44335 -13.458513 1.3255717
-1.2196503 -13.369643 1.2674623
-0.99762213 -13.296792 1.2096559
-0.77939701 -13.200093 1.1530557
-0.32550362 -13.233763 1.033294
1.4751818 -12.144802 0.56876808
1.6467575 -11.968515 0.5251357
1.8513325 -11.913643 0.47176293
2.0058703 -11.70347 0.43290979
2.183588 -11.576153 0.38723496
2.3547873 -11.436661 0.3433814
2.5331705 -11.322425 0.29741642
2.7089803 -11.205259 0.25215483
2.8899043 -11.103534 0.20541167
3.0527039 -10.962368 0.16378306
3.22053 -10.836758 0.12069538
3.3942575 -10.726329 0.075921886
3.5613251 -10.604088 0.033003479
3.7027512 -10.435246 -0.0027580536
-1.7347302 -13.594077 1.4177524
-1.5067239 -13.511314 1.3583077
-1.2811402 -13.434489 1.2994527
-1.0585778 -13.343682 1.2415111
-0.83686602 -13.278888 1.1835772
-0.61797071 -13.200217 1.1265011
-0.38920584 -13.237014 1.0658526
1.4363304 -12.232614 0.59277147
1.6023173 -12.028827 0.55070055
1.7964425 -11.937482 0.50026464
1.9645519 -11.766808 0.45735618
2.1469357 -11.650414 0.41022608
2.3199129 -11.512273 0.36576104
2.4929011 -11.380797 0.32123551
2.6663413 -11.255872 0.27653664
2.8482316 -11.155758 0.22939934
3.0162797 -11.025152 0.18616988
3.1895258 -10.910006 0.14143851
3.3603508 -10.791981 0.097370304
3.528713 -10.671133 0.05397566
3.6945684 -10.547513 0.011265708
-1.588291 -13.55329 1.3895497
-1.3611554 -13.488532 1.3301222
-1.1374369 -13.389762 1.2718778
-0.91513973 -13.316996 1.2137921
-0.69586462 -13.230342 1.1566205
-0.47086152 -13.229416 1.097224
-0.23785579 -13.293921 1.0351723
1.3818151 -12.329522 0.61555362
1.5403042 -12.088439 0.57571119
1.7274028 -11.970005 0.52729601
1.9056885 -11.829473 0.48139149
2.0864449 -11.705132 0.43469912
2.2673595 -11.587313 0.38791186
2.4386883 -11.447843 0.34383404
2.6100891 -11.315042 0.29968265
2.7968247 -11.225706 0.25112027
2.9741499 -11.114769 0.20522155
3.1370742 -10.973608 0.16337669
3.3133562 -10.866033 0.11772559
3.4745376 -10.728638 0.076309972
3.6460407 -10.615337 0.031966966
-1.6813979 -13.62432 1.4207293
-1.4530839 -13.531666 1.3611517
-1.2271956 -13.454938 1.3020835
-1.0043184 -13.364223 1.2439262
-0.78230971 -13.299511 1.1857841
-0.5614149 -13.240836 1.1278859
-0.33510295 -13.247849 1.0680176
1.3174189 -12.435743 0.63793969
1.4717491 -12.166827 0.59936106
1.6553078 -12.030687 0.551965
1.843749 -11.920329 0.50306684
2.0235186 -11.787848 0.45664194
2.2030616 -11.66199 0.41022232
2.3761983 -11.523879 0.36559767
2.5493443 -11.392425 0.32091418
2.7301893 -11.286045 0.27398977
2.9125304 -11.185818 0.22661883
3.0692346 -11.027713 0.18650049
3.242471 -10.912651 0.14165744
3.4132907 -10.794712 0.097477831
3.5860398 -10.682846 0.052736156
3.7156982 -10.488692 0.020061567
-1.5170935 -13.573774 1.3926909
-1.2893821 -13.519137 1.3329028
-1.0651537 -13.420476 1.2743934
-0.84295112 -13.337832 1.2162888
-0.62334651 -13.251283 1.1589043
-0.39805031 -13.250461 1.099317
-0.16917381 -13.275331 1.0385728
1.4237658 -12.215655 0.62582737
1.6139858 -12.100403 0.57644731
1.8012643 -11.982033 0.5278703
1.9826531 -11.851084 0.48095432
2.1606848 -11.717267 0.43494934
2.3417764 -11.599499 0.38800374
2.5166845 -11.46943 0.34279454
2.6884298 -11.336604 0.29844394
2.8680785 -11.228792 0.25179943
3.0415652 -11.1088 0.20688309
3.2164016 -10.995078 0.16155891
3.380513 -10.860413 0.11924201
3.5545185 -10.75001 0.07410939
3.730809 -10.64551 0.028325276
-1.6134124 -13.65487 1.4245182
-1.384496 -13.562368 1.3646907
-1.1580123 -13.485783 1.3053803
-0.93402898 -13.405186 1.2467637
-0.71328038 -13.310662 1.1891147
-0.49213666 -13.252128 1.1310711
1.358709 -12.322021 0.64882588
1.5437907 -12.179246 0.60100263
1.7276484 -12.043192 0.55345011
1.9107134 -11.913801 0.50605208
2.0964222 -11.800513 0.45782647
2.276252 -11.674724 0.41125712
2.4562891 -11.555458 0.36457914
2.6231177 -11.405286 0.32164788
2.8042288 -11.298971 0.27458027
2.9830606 -11.189611 0.22814079
3.1477714 -11.04987 0.18568417
3.3214357 -10.934789 0.14065863
3.4884467 -10.807842 0.097489499
3.6614654 -10.696025 0.052608341
-1.4665866 -13.604178 1.3983581
-1.2386013 -13.539696 1.3384782
-1.0135796 -13.451172 1.2795696
-0.79024965 -13.378633 1.2209865
-0.5706898 -13.282219 1.1635867
-0.34490886 -13.281509 1.1037924
-0.11882733 -13.276682 1.0439504
1.2994684 -12.407784 0.67508292
1.4794463 -12.237452 0.62874407
1.664889 -12.102977 0.58067763
1.8522234 -11.984734 0.53198248
2.0365727 -11.863437 0.48410174
2.2178929 -11.739167 0.43704709
2.396136 -11.611987 0.39082971
2.5746465 -11.491333 0.34449142
2.7432311 -11.349199 0.30094805
2.923084 -11.241441 0.2541523
3.100636 -11.130662 0.20799069
3.2678206 -10.998725 0.16473764
3.4319992 -10.864168 0.12230377
3.6060536 -10.753882 0.077062018
3.7377977 -10.560873 0.043676727
-1.5391276 -13.654443 1.436779
-1.3097215 -13.592109 1.3764559
-1.0833945 -13.495691 1.3171959
-0.85874265 -13.425239 1.2581921
-0.63832194 -13.320886 1.2005535
-0.41618463 -13.272461 1.1420562
-0.18837295 -13.289698 1.0815809
1.2528002 -12.502428 0.7054919
1.4261061 -12.294716 0.66108775
1.6182191 -12.18118 0.61101669
1.8047644 -12.05487 0.56251419
1.9908385 -11.935123 0.5140878
2.1709292 -11.802855 0.46733883
2.3539243 -11.68665 0.41970292
2.534142 -11.567461 0.37282422
2.7011647 -11.417351 0.3296659
2.8824551 -11.311109 0.28241083
3.0614572 -11.201816 0.23578042
3.2302845 -11.071258 0.19200322
3.396121 -10.938044 0.14903674
3.5673888 -10.820204 0.10451823
3.7405767 -10.708434 0.059446737
-1.3975829 -13.643336 1.4142529
-1.1696366 -13.549029 1.3544739
-0.94400388 -13.470657 1.2952003
-0.72089422 -13.388296 1.2366235
-0.50113398 -13.292039 1.1790264
-0.048947733 -13.286818 1.0592227
1.1899922 -12.605757 0.73543948
1.3596077 -12.370189 0.69206703
1.5510581 -12.248564 0.64214391
1.7341421 -12.10455 0.5945881
1.9242593 -11.996037 0.54492927
2.1059237 -11.865299 0.49766117
2.2872934 -11.741168 0.45042622
2.4720256 -11.632976 0.40219298
2.6475205 -11.502977 0.35655296
2.8233912 -11.379513 0.31076983
3.0000656 -11.26246 0.26473096
3.162586 -11.115016 0.22264735
3.333519 -10.992447 0.1781666
3.5100584 -10.885159 0.13209699
3.688771 -10.783804 0.085411906
-1.4903859 -13.683435 1.451552
-1.2604334 -13.621235 1.3909882
-1.0332253 -13.534939 1.3313016
-0.80835176 -13.454602 1.272198
-0.58737099 -13.35035 1.2142739
-0.36552948 -13.292059 1.1558356
1.1147017 -12.669043 0.76737052
1.2870446 -12.434907 0.72314966
1.4802421 -12.314895 0.6726898
1.6727386 -12.201387 0.62237471
1.8570137 -12.065481 0.5743795
2.0433087 -11.945798 0.52574748
2.2236185 -11.813581 0.4787792
2.4068315 -11.697428 0.43094206
2.5806746 -11.559494 0.38572437
2.7614243 -11.446879 0.3385182
2.9360137 -11.322007 0.29302076
3.115226 -11.212751 0.24619995
3.280349 -11.073089 0.20330586
3.4462445 -10.939973 0.16016449
3.626024 -10.840199 0.11313369
3.76454 -10.657117 0.077563554
-1.3415263 -13.662677 1.4245985
-1.1129861 -13.578456 1.3644725
-0.88724428 -13.490176 1.3051132
-0.66494477 -13.387928 1.2467507
-0.44367108 -13.311703 1.1885049
-0.21739766 -13.311215 1.1284803
0.0080917738 -13.29667 1.0687474
1.2210945 -12.489052 0.75178003
1.4157332 -12.370701 0.70085311
1.6120234 -12.268514 0.64939123
1.7954606 -12.124485 0.60158908
1.9859215 -12.015954 0.55171114
2.1650369 -11.875654 0.50503451
2.3496444 -11.76102 0.45674646
2.5282843 -11.633941 0.41011703
2.7038028 -11.504012 0.36433136
2.8761642 -11.371318 0.31940061
3.063772 -11.282114 0.27016482
3.222784 -11.125425 0.22891906
3.3978939 -11.011952 0.18314402
3.5623069 -10.877515 0.14033334
3.7451835 -10.785255 0.092370488
-1.4078447 -13.703326 1.456358
-1.1774573 -13.651194 1.3954791
-0.9507733 -13.534981 1.3359584
-0.72595859 -13.454717 1.2767231
-0.50370347 -13.37049 1.218191
-0.28075379 -13.322208 1.1592638
-0.056159865 -13.299794 1.0997466
1.1746416 -12.562202 0.77719629
1.3689381 -12.435707 0.72633672
1.5597677 -12.306059 0.67641771
1.7520537 -12.192656 0.62601477
1.9414288 -12.076079 0.57640398
2.1306541 -11.96597 0.52679378
2.3052974 -11.814685 0.48129916
2.4915977 -11.708048 0.43244573
2.6655614 -11.570109 0.38705349
2.8429739 -11.448155 0.34065092
3.0175164 -11.323341 0.29502609
3.1929214 -11.204938 0.24913506
3.3578496 -11.065396 0.20615226
3.531697 -10.950528 0.16065256
3.7115822 -10.850739 0.11346149
-1.2704415 -13.682932 1.4260596
-1.0413381 -13.608768 1.3655914
-0.81550759 -13.510542 1.3061341
-0.59230202 -13.418322 1.2473398
-0.37053853 -13.342124 1.1888343
-0.14652967 -13.311794 1.1294634
0.080010176 -13.307252 1.0692682
1.1018547 -12.644264 0.8015101
1.2919581 -12.490047 0.75187737
1.4843512 -12.362027 0.70148152
1.6804757 -12.259937 0.64994347
1.8663254 -12.125645 0.60132366
2.0595183 -12.026758 0.55054492
2.2388022 -11.886458 0.50370663
2.4205172 -11.762341 0.45612615
2.6023767 -11.644738 0.40847006
2.7746882 -11.505439 0.36347863
2.9541142 -11.3914 0.31644684
3.1346579 -11.283645 0.26908287
3.301368 -11.145342 0.22557364
3.4807839 -11.040881 0.17848916
3.6498094 -10.915293 0.1342897
3.7859886 -10.724346 0.09920755
-1.3351729 -13.743549 1.4576371
-1.1046009 -13.661479 1.3967775
-0.87743473 -13.555306 1.3369626
-0.65181023 -13.485072 1.2773502
-0.43104845 -13.370942 1.2192845
-0.20812413 -13.322716 1.1602634
1.0568035 -12.725539 0.82722449
1.2452021 -12.553295 0.77810234
1.4414884 -12.436634 0.72656059
1.6369565 -12.326438 0.67519909
1.8270752 -12.203334 0.62533444
2.0139558 -12.077149 0.57634944
2.2003629 -11.957522 0.52745175
2.3837633 -11.834867 0.47937173
2.5641158 -11.709258 0.43212011
2.741365 -11.580761 0.38570863
2.9189329 -11.458793 0.33917695
3.1044505 -11.361776 0.2903831
3.2654243 -11.206326 0.24845754
3.438184 -11.085103 0.20319857
3.6082652 -10.961068 0.15866758
3.7882946 -10.861252 0.11135045
-1.1995918 -13.702938 1.4299848
-0.97058237 -13.608842 1.3695529
-0.7438944 -13.53067 1.3096516
-0.52145892 -13.418535 1.2510704
-0.29890785 -13.352376 1.1922038
-0.076521941 -13.302192 1.1332921
0.15095665 -13.307676 1.0727154
0.98202085 -12.815746 0.85425699
1.1635273 -12.59601 0.80717391
1.3653246 -12.500613 0.7539959
1.5601795 -12.382339 0.7027927
1.7542787 -12.270544 0.65175587
1.9377851 -12.126628 0.60371757
2.1337576 -12.037391 0.55205572
2.3161535 -11.906635 0.5042392
2.4982507 -11.782471 0.45646679
2.6676385 -11.627103 0.41225144
2.8531747 -11.525442 0.36343709
3.0294449 -11.402036 0.3172107
3.2065158 -11.285029 0.27073684
3.3694479 -11.137609 0.22819568
3.548764 -11.033277 0.18105215
3.7259889 -10.925871 0.1344835
-1.2829133 -13.753421 1.4626385
-1.0518595 -13.691418 1.4014521
-0.82417715 -13.585303 1.3414012
-0.59950656 -13.485161 1.2821207
-0.37741163 -13.391048 1.2234945
-0.15415148 -13.342865 1.1643084
0.068758465 -13.300655 1.1051836
0.29523855 -13.294167 1.0449154
0.92074114 -12.924874 0.88037169
1.0982478 -12.667253 0.8345086
1.2996342 -12.563748 0.78144962
1.4961051 -12.447109 0.72977132
1.6894327 -12.327226 0.67894775
1.8770869 -12.194523 0.62970477
2.0691233 -12.087666 0.57915562
2.2557108 -11.968045 0.53012669
2.4363217 -11.835877 0.48275694
2.6229537 -11.729231 0.43364671
2.7939687 -11.581876 0.38891551
2.9715526 -11.459957 0.34229767
3.153481 -11.353721 0.29443645
3.3218479 -11.216798 0.25035512
3.5065312 -11.122962 0.20169382
3.6731777 -10.989624 0.15805104
3.8114693 -10.79974 0.12226765
-1.1181244 -13.733013 1.433019
-0.8883577 -13.648952 1.3723514
-0.66219759 -13.540828 1.3127718
-0.43900067 -13.438711 1.2539482
-0.21610449 -13.372569 1.195013
0.0057173157 -13.312449 1.1363312
0.2333629 -13.317956 1.0757459
0.86891413 -12.993741 0.90843767
1.0494725 -12.737591 0.86179262
1.2506899 -12.625957 0.80887294
1.4488429 -12.510962 0.75678694
1.643883 -12.392684 0.70554703
1.8381598 -12.280886 0.654477
2.0218472 -12.136963 0.60639596
2.2179983 -12.047711 0.55470645
2.3976817 -11.907403 0.50767303
2.5797954 -11.783274 0.45990586
2.7556264 -11.646792 0.41387883
2.9381254 -11.535682 0.36594021
3.1145709 -11.412246 0.31967905
3.2881312 -11.285968 0.27420095
3.4702754 -11.184442 0.22630624
3.638396 -11.052483 0.18230666
3.8118005 -10.935935 0.13681906
-1.2081293 -13.793619 1.4641578
-0.97667861 -13.711642 1.4030522
-0.74831021 -13.615543 1.3428421
-0.52310842 -13.515408 1.2834964
-0.30048403 -13.421296 1.2248039
-0.079168946 -13.343213 1.1663753
0.14673734 -13.330873 1.1063709
0.36793596 -13.274729 1.0478548
0.97259396 -12.787491 0.88969558
1.1752146 -12.67759 0.8364085
1.3767921 -12.574081 0.78336662
1.5756104 -12.467176 0.73107654
1.7669721 -12.337533 0.68089181
1.9573011 -12.214472 0.6309467
2.1470377 -12.097937 0.58112341
2.3338151 -11.978291 0.53210539
2.5146127 -11.846101 0.48474452
2.6982994 -11.729966 0.43652919
2.8759179 -11.601431 0.38999501
3.0538454 -11.479415 0.34334376
3.2325101 -11.363804 0.29646203
3.4048162 -11.236048 0.25133559
3.5820024 -11.123824 0.20482929
3.756814 -11.008636 0.15897073
-1.1329749 -13.823545 1.4669864
-0.90097171 -13.741589 1.4057587
-0.67236692 -13.635508 1.3455596
-0.4472656 -13.525395 1.2863122
-0.22311299 -13.451244 1.2271309
-0.0037172746 -13.343259 1.1693902
0.2222321 -13.330938 1.1094103
0.44231817 -13.264893 1.0512693
0.65926427 -13.185072 0.9940328
0.85309052 -12.963194 0.94367903
1.048287 -12.787643 0.89272153
1.2527828 -12.687584 0.83889949
1.4565672 -12.593843 0.78523558
1.6536064 -12.477136 0.73348308
1.8475016 -12.357181 0.68258333
2.0357199 -12.224391 0.63325799
2.2336092 -12.136669 0.58113003
2.4154627 -11.99772 0.53352863
2.5996044 -11.874954 0.48523709
2.7775602 -11.739759 0.43865281
2.9586744 -11.620585 0.3911466
3.1335201 -11.489131 0.34537104
3.3123877 -11.373472 0.29844314
3.4961772 -11.27329 0.25012693
3.6701169 -11.15167 0.20454042
3.8413696 -11.027222 0.15968305
-0.98569047 -13.813077 1.43758
-0.75549906 -13.689066 1.3770397
-0.52784538 -13.600958 1.3169897
-0.30305314 -13.508824 1.2577209
-0.083407983 -13.382839 1.1999925
0.13949318 -13.33271 1.1410129
0.36101758 -13.278625 1.0824198
0.58234185 -13.230529 1.0238487
0.78416085 -13.049909 0.97113609
0.98041338 -12.866087 0.91992068
1.1849838 -12.757876 0.8661083
1.3884559 -12.656026 0.81255686
1.5871191 -12.540975 0.76035106
1.7781891 -12.403179 0.71027911
1.9750397 -12.30107 0.65848738
2.1642008 -12.176377 0.60885537
2.3555517 -12.067809 0.55855972
2.5471308 -11.965594 0.50817162
2.7180226 -11.803248 0.46358702
2.9006026 -11.685555 0.41566905
3.0803802 -11.564887 0.36851108
3.2573111 -11.441306 0.32212439
3.4313514 -11.314878 0.2765204
3.6216397 -11.231539 0.22637707
3.7945392 -11.108367 0.18105985
-1.0782883 -13.853283 1.4716222
-0.84581304 -13.771362 1.4102277
-0.61673462 -13.665306 1.3498529
-0.39116153 -13.555211 1.2904297
-0.16719553 -13.471093 1.2313064
0.052503087 -13.363117 1.1734349
0.27577376 -13.320967 1.1142936
0.49565661 -13.254977 1.0561693
0.70444381 -13.115796 1.0013492
0.90006346 -12.913887 0.95033461
1.1076748 -12.817308 0.89562052
1.3126363 -12.717193 0.84162772
1.5089201 -12.584249 0.79010284
1.71007 -12.487106 0.73710799
1.9064201 -12.376847 0.68545502
2.0949347 -12.244006 0.63599354
2.2904668 -12.146612 0.58449423
2.47807 -12.026774 0.53521204
2.6537564 -11.875346 0.48925105
2.8348083 -11.74964 0.44173828
3.0160542 -11.63044 0.39414459
3.1944683 -11.508293 0.34731469
3.373621 -11.392538 0.30025885
3.5614464 -11.301463 0.25077713
3.7319071 -11.170523 0.20610592
3.8708975 -10.973433 0.17012218
-0.93067873 -13.832671 1.443127
-0.69989514 -13.718688 1.3823179
-0.4717097 -13.630599 1.3220787
-0.24695797 -13.528493 1.2628188
-0.026215224 -13.412489 1.2046883
0.19449565 -13.332491 1.1464
0.41604125 -13.278439 1.0877675
0.62993485 -13.170886 1.0314199
0.82937276 -12.980553 0.97930253
1.0355195 -12.866004 0.92504799
1.240116 -12.757824 0.87117445
1.4455197 -12.665808 0.81701148
1.640228 -12.531221 0.76589191
1.8378706 -12.422675 0.71386945
2.0278718 -12.291463 0.66398466
2.2220259 -12.186122 0.61287528
2.4108412 -12.067946 0.56324548
2.5995553 -11.956224 0.51361269
2.7764127 -11.81293 0.46727961
2.9591761 -11.69521 0.4192557
3.132406 -11.555769 0.37386903
3.3127291 -11.441587 0.32647818
3.4978383 -11.342913 0.27774248
3.6771123 -11.231876 0.23061518
3.8500378 -11.108736 0.18523297
-1.0052689 -13.90271 1.4804511
-0.77233791 -13.790867 1.4189883
-0.54286498 -13.684878 1.3584195
-0.31689525 -13.574842 1.2987993
-0.093186513 -13.480803 1.239714
0.12756155 -13.382852 1.1814331
0.34726039 -13.300956 1.1233616
0.56686014 -13.235081 1.06525
0.77007794 -13.056398 1.011971
0.97670531 -12.933734 0.95755023
1.1813924 -12.817471 0.90361667
1.3864137 -12.717422 0.84952778
1.5867392 -12.604112 0.79674214
1.7818182 -12.477725 0.7454077
1.9826972 -12.386981 0.69237852
2.1739233 -12.263821 0.64205503
2.3645563 -12.147171 0.59186274
2.5494125 -12.017828 0.54325861
2.7279766 -11.876026 0.49638274
2.9122176 -11.759841 0.4478856
3.0936821 -11.640641 0.40014136
3.2723236 -11.518495 0.35316038
3.4444911 -11.384187 0.30795163
3.6397362 -11.311654 0.25634342
3.8143251 -11.189848 0.21043728
-0.85285366 -13.851803 1.4549059
-0.62130183 -13.757896 1.3936543
-0.39368862 -13.639894 1.3335425
-0.16937326 -13.527884 1.2742872
0.051332936 -13.41196 1.2160045
0.27290735 -13.341999 1.1573178
0.49350175 -13.278074 1.0988663
0.69991481 -13.111107 1.044585
0.90677297 -12.980343 0.99004596
1.1128848 -12.865867 0.93564385
1.3209251 -12.777436 0.8806271
1.5228091 -12.665826 0.82733893
1.7216264 -12.550842 0.77487934
1.9218003 -12.452013 0.72199798
2.1098635 -12.311062 0.67249978
2.3068678 -12.215343 0.62044924
2.4961319 -12.097086 0.57054424
2.6737502 -11.947122 0.5238601
2.8626053 -11.841893 0.47401458
3.0394034 -11.705209 0.42749813
3.2228527 -11.593884 0.37911394
3.3932073 -11.451591 0.33433399
3.578434 -11.352917 0.2854284
3.7539909 -11.232705 0.23917755
3.8989642 -11.045897 0.20132366
-0.92131984 -13.911774 1.4893996
-0.68824512 -13.799953 1.4277447
-0.45767397 -13.723975 1.3666285
-0.2315371 -13.603949 1.3068495
-0.0086560659 -13.489954 1.2479136
0.21223618 -13.392013 1.1894518
0.43109336 -13.300183 1.1315095
0.64257002 -13.164844 1.0756871
0.85121751 -13.035864 1.0205935
1.0604695 -12.933031 0.96524715
1.2667921 -12.826642 0.91069186
1.4719568 -12.726584 0.85642272
1.6684451 -12.593694 0.80458045
1.8654889 -12.477113 0.75253052
2.0640292 -12.376687 0.70002568
2.2625129 -12.282576 0.64751285
2.453445 -12.165853 0.59709054
2.6358018 -12.026866 0.5490312
2.8115318 -11.875514 0.5027796
2.9988785 -11.768809 0.45327502
3.1739073 -11.63077 0.40716225
3.3592525 -11.527382 0.35817781
3.5351572 -11.402306 0.31178516
3.7194178 -11.302032 0.26307723
3.8938315 -11.180311 0.21706839
-0.77483177 -13.861178 1.4595925
-0.54316056 -13.767269 1.3981205
-0.31502292 -13.659257 1.3376374
-0.090424322 -13.547229 1.2781104
0.13278839 -13.461196 1.218866
0.34972081 -13.331434 1.1614447
0.56795895 -13.247657 1.1035182
0.77754015 -13.1105 1.0480802
0.98576248 -12.989633 0.99295026
1.1935673 -12.884997 0.93787622
1.3984152 -12.776839 0.88360107
1.6002531 -12.665233 0.83014071
1.7969524 -12.540487 0.77809465
1.9991508 -12.451426 0.72446001
2.1919663 -12.329846 0.67343849
2.3841288 -12.21476 0.62256879
2.5760713 -12.1061 0.57173461
2.7538054 -11.956086 0.52483094
2.9366825 -11.831834 0.47646731
3.1196883 -11.714067 0.42804685
3.3032546 -11.602685 0.37945545
3.4701967 -11.451025 0.33543378
3.6590617 -11.361598 0.28535303
3.8385646 -11.250495 0.23784153
-0.71695399 -13.891412 1.4573317
-0.48482046 -13.797503 1.3955426
-0.25702512 -13.669495 1.3350298
-0.031159995 -13.577431 1.2749113
0.19029965 -13.46146 1.216053
0.40809751 -13.341656 1.1581889
0.62216347 -13.218119 1.1013347
0.83616936 -13.120697 1.0444078
1.0459286 -13.009703 0.98866463
1.2524532 -12.895156 0.93379766
1.455688 -12.77714 0.8798238
1.6574872 -12.665539 0.82621074
1.8541548 -12.540797 0.77401799
2.0585518 -12.461471 0.71959901
2.2514975 -12.339858 0.66839045
2.4463453 -12.234369 0.61661488
2.6385834 -12.125621 0.56555223
2.8166106 -11.975513 0.51843315
2.9967303 -11.841671 0.47069889
3.1766555 -11.714424 0.42299196
3.3568287 -11.593679 0.37519908
3.534152 -11.470011 0.32817712
3.7159381 -11.361976 0.2799063
3.8954132 -11.250879 0.23226555
-0.78506386 -13.972008 1.4878931
-0.55123359 -13.850203 1.4257039
-0.32088077 -13.744237 1.3643913
-0.093544893 -13.644192 1.3038667
0.12990594 -13.530169 1.2444316
0.34972072 -13.41227 1.1859825
0.56683129 -13.300529 1.1282382
0.77936524 -13.175137 1.0717676
0.99205142 -13.075864 1.0151634
1.2003797 -12.963068 0.95977449
1.4071048 -12.856606 0.90479386
1.6090227 -12.736833 0.85114735
1.8075693 -12.613711 0.79841399
2.0113089 -12.526307 0.74416727
2.2036242 -12.396581 0.69312698
2.404819 -12.312062 0.63955092
2.5908613 -12.175982 0.5902127
2.7760963 -12.046529 0.54106873
2.9609604 -11.923632 0.49199995
3.1427677 -11.797745 0.44376135
3.3181915 -11.659546 0.39727572
3.4970369 -11.53731 0.34981722
3.6802132 -11.430737 0.30114585
3.8610988 -11.321072 0.25309736
-0.6431303 -13.9217 1.4567876
-0.4109574 -13.807808 1.3950225
-0.18259069 -13.6898 1.334291
0.043040421 -13.587753 1.2742363
0.26466966 -13.471787 1.2153015
0.48173171 -13.34203 1.1576394
0.69687444 -13.228447 1.1004339
0.90980625 -13.121103 1.0437998
1.120973 -13.020018 0.98761702
1.3308115 -12.925184 0.93176687
1.5293314 -12.77759 0.87913281
1.7330363 -12.675805 0.8249495
1.9319389 -12.560809 0.77209949
2.1344306 -12.471693 0.71819866
2.3275447 -12.350049 0.66692251
2.5199964 -12.234893 0.61579949
2.7122345 -12.126157 0.56471318
2.893153 -11.985601 0.51676834
3.0764832 -11.861205 0.46812102
3.2535291 -11.72443 0.42120078
3.4338622 -11.603638 0.3733443
3.6148677 -11.489228 0.32528523
3.7969711 -11.381073 0.27691153
3.9537652 -11.214799 0.23551691
-0.7053898 -13.982246 1.4885755
-0.47125292 -13.870459 1.4262911
-0.2408853 -13.754513 1.365031
-0.013388177 -13.654481 1.3044852
0.2095723 -13.530494 1.2452362
0.43020198 -13.422576 1.1865553
0.64747578 -13.310841 1.1287876
0.8601684 -13.18545 1.0722924
1.0743386 -13.096081 1.0152782
1.281502 -12.973376 0.96025401
1.4867287 -12.857056 0.90572745
1.686821 -12.727484 0.85262108
1.885197 -12.604417 0.79995185
2.0930681 -12.536566 0.74455059
2.2901707 -12.426229 0.69217819
2.484412 -12.312614 0.64058417
2.6730897 -12.18617 0.59052259
2.8556774 -12.047117 0.54213542
3.0434985 -11.933758 0.49225822
3.2254639 -11.807837 0.44399345
3.4076052 -11.688401 0.39565882
3.5800374 -11.547319 0.34999704
3.7633617 -11.440704 0.30130172
3.9368885 -11.31257 0.2553038
-0.65479153 -14.002579 1.492288
-0.42041403 -13.880888 1.4299933
-0.18983026 -13.765033 1.3686949
0.037395738 -13.655103 1.3082757
0.26040626 -13.531209 1.2490308
0.48108578 -13.423386 1.1903579
0.69840127 -13.311742 1.1325959
0.91114682 -13.18644 1.076103
1.1253538 -13.09716 1.0190989
1.3325702 -12.974545 0.964077
1.5378461 -12.858315 0.90955257
1.7398039 -12.738645 0.8559261
1.9383987 -12.615628 0.80321234
2.1443143 -12.538084 0.7483905
2.3391538 -12.418125 0.69667047
2.5332735 -12.304632 0.64512223
2.7218435 -12.178319 0.59510154
2.9099233 -12.058531 0.54518974
3.0949922 -11.935679 0.49609375
3.2770045 -11.809838 0.44782504
3.4559181 -11.68108 0.40039626
3.6316876 -11.549478 0.35381785
3.8114593 -11.43366 0.30611646
3.9811296 -11.29646 0.2611877
-0.49449351 -13.93283 1.4646106
-0.26157108 -13.83916 1.4026444
-0.032950632 -13.711374 1.3419369
0.19202709 -13.589569 1.2821852
0.41379622 -13.473828 1.2232728
0.63190198 -13.354245 1.1653507
0.84735006 -13.240865 1.108121
1.061812 -13.143637 1.0511038
1.2706413 -13.02293 0.99566787
1.4774719 -12.908582 0.94074613
1.6792853 -12.780924 0.88720822
1.8812213 -12.669546 0.83358586
2.0862849 -12.584097 0.77904618
2.2847695 -12.475655 0.72633779
2.4828064 -12.373588 0.67373008
2.6706202 -12.239256 0.6239571
2.8602765 -12.121129 0.57364029
3.0411923 -11.980813 0.52573115
3.2305813 -11.875646 0.47544432
3.4143379 -11.75787 0.42670476
3.5852275 -11.608969 0.38150439
3.773396 -11.513378 0.33151534
3.9412701 -11.368297 0.28710878
-0.59125471 -13.983418 1.4990097
-0.35698691 -13.871944 1.4367288
-0.12617679 -13.766298 1.3753568
0.10018823 -13.636598 1.3152442
0.32359532 -13.522908 1.2558749
0.54499537 -13.425265 1.1969938
0.76044202 -13.293924 1.1398058
0.9740907 -13.178784 1.0830504
1.18689 -13.079821 1.0264736
1.3968205 -12.977207 0.97067404
1.5988925 -12.841462 0.91707486
1.8024242 -12.731868 0.86300868
2.0048943 -12.628641 0.8092044
2.2067518 -12.53175 0.75554633
2.4038217 -12.421721 0.70320833
2.5980306 -12.308415 0.65164495
2.7893262 -12.191895 0.60086995
2.9748652 -12.062663 0.55167246
3.1570759 -11.93047 0.50337422
3.3421385 -11.814319 0.45426431
3.5211494 -11.68573 0.40681091
3.6970191 -11.554293 0.36020601
3.8697021 -11.420081 0.31446016
-0.45720783 -13.933619 1.4709058
-0.22459675 -13.820148 1.4090964
0.0045995652 -13.712549 1.3481834
0.22860803 -13.570968 1.2887557
0.4508943 -13.465403 1.2296833
0.6698572 -13.355972 1.1715106
0.88543689 -13.242773 1.1142534
1.1000208 -13.14572 1.0572168
1.3089874 -13.025186 1.0017496
1.5128334 -12.891275 0.94768882
1.7179046 -12.783517 0.89322555
1.9199694 -12.672309 0.83957535
2.1251445 -12.587025 0.78501934
2.3193178 -12.459287 0.73352802
2.5195308 -12.367155 0.68031693
2.7047796 -12.223379 0.631257
2.9023724 -12.134295 0.57873869
3.0835981 -11.994076 0.53074348
3.2641807 -11.860535 0.48290002
3.4445627 -11.733582 0.43509209
3.6218243 -11.603751 0.38812557
3.8064466 -11.499063 0.33911932
3.9814854 -11.372749 0.292739
-0.5247606 -13.984133 1.5056721
-0.29036602 -13.87285 1.4433465
-0.05914399 -13.777386 1.3818245
0.16705666 -13.637874 1.3217652
0.38995636 -13.514387 1.2625459
0.60969228 -13.397 1.2041537
0.82671064 -13.285783 1.1464714
1.0403183 -13.170829 1.0897125
1.2543647 -13.081967 1.0327632
1.461466 -12.959756 0.97776192
1.6649809 -12.834082 0.92372888
1.8684642 -12.724676 0.86965978
2.0708838 -12.621647 0.81585652
2.2726867 -12.524952 0.76220208
2.474309 -12.434538 0.70857877
2.6638749 -12.302006 0.65829164
2.8551278 -12.185678 0.60750937
3.0406401 -12.056643 0.55829781
3.2228189 -11.92464 0.50998414
3.4047332 -11.799222 0.46172294
3.5835564 -11.670886 0.41429713
3.766088 -11.558402 0.36583528
3.9424872 -11.433607 0.31904629
-0.37624359 -13.94418 1.4765648
-0.14367634 -13.820844 1.414722
0.085136086 -13.703388 1.3538686
0.30899072 -13.561943 1.2944033
0.53182167 -13.466492 1.2350918
0.74989814 -13.347232 1.1771138
0.96531135 -13.234167 1.1198317
1.1797191 -13.13726 1.0627764
1.3899045 -13.026765 1.0068847
1.5922065 -12.8831 0.95318764
1.7988261 -12.78533 0.89821595
2.0008936 -12.674233 0.8444981
2.2040005 -12.579297 0.79045844
2.4024417 -12.471169 0.73770005
2.6004305 -12.369413 0.68504769
2.7856929 -12.225742 0.63590628
2.9778626 -12.117569 0.58482558
3.1645055 -11.996649 0.53525484
3.3450994 -11.863206 0.48733634
3.5254815 -11.736352 0.43945473
3.70275 -11.606617 0.39241481
3.8803599 -11.483393 0.34526506
-0.47023478 -13.994435 1.5083146
-0.23580258 -13.873217 1.445949
-0.0048792586 -13.767824 1.3844801
0.22115766 -13.62838 1.3244061
0.4445231 -13.514946 1.2649801
0.66505712 -13.40759 1.2062939
0.8822422 -13.29641 1.1485145
1.0971516 -13.191432 1.0913284
1.3076181 -13.072859 1.0353642
1.5160222 -12.960611 0.97993529
1.7211764 -12.844847 0.92538542
1.9212185 -12.715822 0.87223655
2.1274052 -12.632457 0.81732565
2.3251038 -12.516278 0.76477104
2.5219607 -12.406538 0.7124238
2.7110398 -12.274183 0.66221404
2.9070499 -12.177294 0.61006081
3.0924017 -12.048356 0.56084108
3.2744246 -11.916452 0.51251858
3.4592862 -11.800604 0.46339458
3.6348436 -11.662906 0.41681561
3.8172171 -11.550531 0.36834881
3.9898829 -11.416561 0.32253477
-0.29684612 -13.944935 1.4748558
-0.064503483 -13.811634 1.4130529
0.16375187 -13.684219 1.352329
0.38889641 -13.572779 1.2923927
0.60973531 -13.447427 1.2336471
0.82834774 -13.338184 1.1754537
1.0425246 -13.215229 1.1184825
1.2590206 -13.138227 1.0607675
1.4691912 -13.027761 1.0048336
1.6745896 -12.903864 0.95021611
1.8780904 -12.786381 0.89608729
2.0820246 -12.685117 0.8417986
2.2791371 -12.560859 0.78939784
2.4816604 -12.472301 0.73545122
2.6820087 -12.380262 0.68209571
2.864888 -12.226925 0.63358366
3.0570428 -12.11878 0.58246547
3.2408125 -11.988336 0.53365219
3.4242587 -11.864463 0.48490724
3.6014483 -11.728195 0.43787044
3.7818887 -11.607924 0.38991973
3.9594891 -11.48472 0.34273738
-0.24170116 -13.935864 1.4699982
-0.0090897204 -13.822565 1.4080631
0.2189687 -13.685163 1.347422
0.44412661 -13.573727 1.2874769
0.66641027 -13.468324 1.228284
0.88537139 -13.359057 1.1699919
1.0998986 -13.236073 1.1129286
1.3143014 -13.139199 1.0558194
1.5231053 -13.018839 1.0002823
1.7283475 -12.894971 0.94570822
1.9334167 -12.787361 0.89113295
2.1373641 -12.686102 0.8368364
2.3385823 -12.581388 0.78328151
2.5414493 -12.492755 0.72923601
2.7326334 -12.361877 0.67844945
2.9202824 -12.227925 0.62861961
3.1178534 -12.138976 0.57599276
3.2990992 -11.998884 0.52789581
3.4797006 -11.865467 0.47995234
3.6600866 -11.738641 0.43204468
3.8373616 -11.608929 0.3849797
4.025476 -11.513683 0.33490533
-0.30925298 -13.986475 1.4968656
-0.074597076 -13.895243 1.4343098
0.15550727 -13.749845 1.3731556
0.38261768 -13.640368 1.3126833
0.60490501 -13.506952 1.2535837
0.82529318 -13.399596 1.1949065
1.0423303 -13.288424 1.13714
1.2582245 -13.193381 1.0796264
1.4687117 -13.074792 1.0236402
1.6771384 -12.962537 0.96818548
1.8806787 -12.836905 0.91408569
2.085983 -12.737368 0.8594259
2.2866209 -12.624556 0.80606109
2.4905696 -12.537657 0.75172198
2.6946645 -12.456959 0.69732374
2.8772154 -12.295374 0.64897054
3.0735712 -12.19838 0.59669995
3.2537055 -12.050184 0.5489499
3.4445879 -11.946838 0.49816898
3.620645 -11.802416 0.4514991
3.8027594 -11.683525 0.40312037
3.9786322 -11.552317 0.35645571
-0.16639575 -13.936589 1.4654917
0.066196673 -13.823267 1.4035884
0.29499698 -13.705822 1.3427166
0.51993501 -13.584359 1.2828925
0.74094051 -13.458979 1.2241356
0.95972282 -13.349704 1.1659213
1.1761689 -13.246594 1.1083108
1.3895084 -13.139757 1.0515455
1.5982985 -13.01938 0.99604565
1.8035336 -12.895489 0.94151092
2.0085855 -12.787862 0.88696885
2.2144048 -12.696388 0.83216864
2.4157796 -12.591621 0.77860343
2.6188016 -12.502928 0.72454357
2.8077612 -12.362301 0.67442524
3.0030134 -12.257269 0.62250215
3.1929574 -12.139364 0.57204509
3.3741937 -11.999257 0.5239951
3.5578077 -11.875317 0.47525537
3.7383451 -11.748419 0.42734823
3.9224532 -11.637394 0.37843198
-0.26187342 -13.996778 1.4980261
-0.027345799 -13.875569 1.4356959
0.20337507 -13.760192 1.3743641
0.4302687 -13.640744 1.3140724
0.65326595 -13.517333 1.2548364
0.87469578 -13.419954 1.1959329
1.0902101 -13.288873 1.1387241
1.3073114 -13.203786 1.0809395
1.5180385 -13.0852 1.0249699
1.725239 -12.963057 0.96995759
1.9304885 -12.847302 0.91544604
2.1378293 -12.757582 0.86028844
2.3408356 -12.654513 0.80633503
2.5453472 -12.567524 0.75192493
2.740829 -12.447884 0.70004088
2.9306626 -12.315362 0.64971095
3.1274197 -12.218301 0.59741133
3.3079493 -12.070026 0.54962415
3.4903948 -11.93803 0.50127041
3.6663673 -11.79368 0.45469028
3.8549192 -11.693686 0.40459615
4.0515418 -11.618531 0.35225821
-0.10461068 -13.95674 1.4675221
0.12793182 -13.823432 1.4057807
0.35713902 -13.715988 1.344849
0.58281475 -13.60451 1.2848734
0.80418724 -13.479117 1.2260972
1.0224501 -13.359867 1.1681324
1.2401413 -13.266688 1.110236
1.451407 -13.13998 1.054167
1.6602234 -13.01961 0.99873453
1.8685845 -12.915465 0.94337118
2.0739973 -12.807784 0.88880789
2.2782912 -12.70645 0.83452529
2.4860005 -12.630967 0.77924383
2.6852746 -12.522663 0.72632498
2.876965 -12.391648 0.67551148
3.0701916 -12.276839 0.62423259
3.2577829 -12.14925 0.57450444
3.439204 -12.009098 0.52646858
3.6229982 -11.88511 0.47774461
3.8100874 -11.77704 0.42808837
3.9846685 -11.637701 0.38187963
-0.17258252 -14.006558 1.5020078
0.062222131 -13.895315 1.4397759
0.29267356 -13.759906 1.3787794
0.52047533 -13.660397 1.3183812
0.74315631 -13.526951 1.2594544
0.96553499 -13.439487 1.2004658
1.1823294 -13.318288 1.1430714
1.3976494 -13.213247 1.0860219
1.6098269 -13.10451 1.0298221
1.817337 -12.982284 0.9749105
2.0245287 -12.876291 0.92003208
2.2305512 -12.776617 0.86544949
2.4319 -12.663655 0.81215364
2.6365602 -12.576594 0.75789571
2.8275852 -12.437455 0.70743471
3.0295279 -12.353289 0.65389448
3.2190406 -12.227139 0.6037975
3.4024856 -12.088357 0.55535936
3.5822752 -11.946705 0.5079053
3.7614765 -11.81173 0.46058846
3.9470575 -11.702177 0.41149271
-0.02767141 -13.956161 1.4724182
0.20513228 -13.832773 1.4108948
0.4345606 -13.725252 1.3502219
0.66046047 -13.613693 1.2905005
0.88132834 -13.478249 1.232191
1.1005211 -13.368886 1.1742486
1.318435 -13.275619 1.1165996
1.5311337 -13.15874 1.0604098
1.740327 -13.038258 1.005164
1.9475152 -12.924124 0.95043284
2.1548612 -12.826186 0.89561266
2.3614166 -12.734523 0.84098315
2.5696812 -12.658863 0.7858541
2.7650628 -12.530914 0.73430824
2.9593282 -12.409483 0.68304062
3.1580052 -12.313818 0.63052219
3.3408666 -12.16678 0.58236569
3.5226343 -12.026465 0.5344798
3.7007248 -11.883322 0.48758131
3.8878529 -11.775183 0.43817601
4.0791893 -11.682682 0.38760573
-0.085517801 -14.005813 1.5051398
0.14928021 -13.894436 1.4432099
0.38031253 -13.778881 1.3822906
0.60844898 -13.679234 1.3220947
0.83208197 -13.555616 1.2631626
1.0533569 -13.448056 1.2048086
1.270304 -13.32672 1.1476438
1.4846387 -13.211607 1.0911541
1.6994199 -13.122568 1.0344703
1.9057641 -12.990294 0.98014915
2.1131113 -12.884154 0.92548686
2.3174779 -12.77451 0.87162644
2.5286801 -12.710375 0.8158226
2.7256062 -12.584009 0.76398343
2.9213598 -12.464144 0.7124356
3.1237872 -12.379732 0.65901721
3.3137591 -12.253339 0.6090228
3.492065 -12.095165 0.56221443
3.6719728 -11.953353 0.5149343
3.8637412 -11.856088 0.46438098
4.0370083 -11.70851 0.41887918
-0.023961809 -14.035393 1.5056067
0.21105534 -13.903925 1.4437525
0.44254312 -13.798277 1.3827617
0.6695838 -13.668563 1.3230158
0.89495063 -13.574803 1.263613
1.1157347 -13.457172 1.205489
1.3347819 -13.355634 1.1477808
1.5484513 -13.230451 1.0915623
1.7609359 -13.121471 1.035614
1.9687322 -12.998997 0.98094428
2.1762259 -12.892755 0.9263075
2.3879895 -12.822284 0.87044281
2.5940807 -12.728539 0.81614381
2.7913091 -12.602023 0.76428264
2.9919825 -12.50142 0.71143752
3.1901143 -12.397428 0.65927589
3.377753 -12.261248 0.60998178
3.558974 -12.11253 0.56242162
3.7391679 -11.970548 0.51511544
3.9250062 -11.85417 0.46624154
4.1146145 -11.753559 0.41632742
0.14739856 -13.964718 1.4757885
0.38056648 -13.851086 1.4143544
0.61110395 -13.763306 1.3535491
0.83709711 -13.641504 1.294036
1.059883 -13.525739 1.2353572
1.2790042 -13.406124 1.1776596
1.495459 -13.29269 1.1206501
1.7109309 -13.195394 1.0638604
1.9179597 -13.054815 1.009419
2.1254535 -12.94042 0.95478618
2.3348525 -12.85205 0.89958012
2.5475967 -12.789493 0.84342068
2.7465494 -12.664569 0.79107755
2.9442787 -12.546119 0.73904181
3.1460032 -12.453471 0.68587756
3.3378258 -12.328452 0.63542366
3.5182259 -12.171539 0.58807808
3.7000937 -12.030994 0.54030097
3.8934703 -11.935072 0.48935676
4.0687361 -11.788673 0.44334394
0.057787232 -14.034879 1.5065132
0.29288664 -13.913326 1.4445462
0.52449453 -13.807589 1.3834634
0.75307649 -13.70775 1.3231668
0.97842956 -13.603895 1.2637367
1.1980381 -13.466216 1.205915
1.4162263 -13.354636 1.1484028
1.6321411 -13.249236 1.0914768
1.8462266 -13.150042 1.03502
2.0529876 -13.017536 0.98058939
2.2607696 -12.911162 0.92581946
2.4746432 -12.850381 0.86931604
2.6792092 -12.746669 0.81539243
2.8767111 -12.620008 0.763399
3.0730464 -12.499838 0.71169698
3.2736073 -12.405441 0.6588096
3.4639843 -12.278769 0.60870427
3.6398692 -12.110745 0.5625459
3.8318408 -12.006774 0.51195794
4.0151539 -11.88065 0.46372309
0.20055209 -13.974529 1.4748856
0.43410525 -13.870848 1.413258
0.66458118 -13.773019 1.3524303
0.89017278 -13.641176 1.2929862
1.1144137 -13.545311 1.233809
1.3347617 -13.435576 1.1756988
1.5506485 -13.312104 1.1188071
1.7639816 -13.194885 1.0625769
1.9738032 -13.074053 1.0072864
2.1831925 -12.969429 0.95206976
2.3948257 -12.890766 0.8961904
2.6025412 -12.798619 0.84138554
2.8037157 -12.683388 0.78837395
3.0017653 -12.56482 0.73619926
3.2014306 -12.462365 0.68355674
3.3985207 -12.356545 0.63160396
3.5821133 -12.209051 0.58333915
3.7646208 -12.068267 0.53534514
3.9434402 -11.924641 0.48833582
4.1153369 -11.768833 0.44319448
0.13879232 -14.054711 1.5059024
0.37406793 -13.923105 1.4438456
0.60614103 -13.827304 1.3825471
0.83456767 -13.717406 1.3222512
1.0600711 -13.613487 1.2627146
1.2814599 -13.495671 1.2043061
1.4991528 -13.374042 1.1468877
1.7165387 -13.27848 1.0894839
1.927158 -13.149449 1.0339612
2.1368706 -13.036656 0.97863728
2.3482757 -12.949878 0.92279708
2.5591733 -12.869279 0.86707598
2.7620709 -12.755665 0.81356096
2.9640224 -12.648418 0.7602821
3.15852 -12.518369 0.70903701
3.3593965 -12.423838 0.65601009
3.5448055 -12.277789 0.60721761
3.7262673 -12.128865 0.55947948
3.9155867 -12.015228 0.50956672
4.0927973 -11.870078 0.46294606
0.29397213 -13.984265 1.4753357
0.52782452 -13.890523 1.413532
0.75893861 -13.802621 1.352439
0.98493534 -13.670697 1.2928149
1.2073848 -13.544834 1.2341164
1.4285325 -13.445004 1.1756986
1.64449 -13.321468 1.1187178
1.8615993 -13.23393 1.0613416
2.0677795 -13.083275 1.0070217
2.2803779 -12.998308 0.9508366
2.4906826 -12.909667 0.89526868
2.698637 -12.817412 0.8403343
2.9000401 -12.702062 0.78719354
3.096092 -12.573641 0.73550743
3.2982192 -12.480783 0.68211973
3.4929802 -12.365186 0.63074362
3.6711891 -12.198417 0.58388644
3.8649588 -12.095811 0.53274173
4.0380716 -11.933004 0.48722696
0.19893025 -14.034391 1.5079079
0.43452927 -13.952754 1.4455972
0.66643417 -13.836928 1.3843488
0.89545697 -13.736986 1.3238269
1.1205981 -13.623043 1.2643691
1.3429213 -13.515151 1.2056448
1.5618792 -13.403416 1.1478215
1.7774158 -13.287915 1.0909168
1.9881419 -13.158842 1.0353184
2.1979725 -13.046002 0.97992218
2.4094944 -12.959175 0.92401344
2.6186934 -12.868699 0.86873037
2.8175724 -12.735494 0.81628698
3.0255871 -12.657547 0.76128817
3.2201991 -12.527437 0.70997036
3.4211895 -12.432845 0.65687543
3.6067047 -12.286735 0.6080088
3.7938776 -12.156875 0.5586645
3.9717777 -12.004997 0.51183242
0.3742094 -14.003857 1.4787556
0.60814583 -13.900097 1.4169211
0.83861417 -13.792188 1.3560152
1.0661077 -13.690208 1.2958863
1.2888665 -13.564301 1.2370658
1.5094261 -13.45447 1.1787933
1.7276618 -13.350774 1.1211249
1.9403003 -13.223494 1.0649925
