# .PCD v0.7 - Point Cloud Data file format
VERSION 0.7
FIELDS x y z
SIZE 4 4 4
TYPE F F F
COUNT 1 1 1
WIDTH 85
HEIGHT 1
VIEWPOINT 0 0 0 1 0 0 0
POINTS 85
DATA ascii
-3.4270961 16.063036 -0.95573044
-3.3941951 16.013563 -0.93210739
-3.4703722 16.154222 -0.90588862
-3.3490555 15.976119 -0.93048483
-3.4526889 16.093594 -0.91227567
-3.3392582 15.940901 -0.94460875
-3.4139028 16.065691 -0.92696285
-3.2913232 15.912221 -0.95475918
-3.3931558 16.026579 -0.92712539
-3.4678721 16.139519 -0.89232296
-3.35359 15.985772 -0.90947163
-3.4331841 16.114456 -0.88019097
-3.2933326 15.962131 -0.88968521
-3.3971522 16.077852 -0.85576826
-3.371407 16.034651 -0.84492415
-3.467329 16.14674 -0.8171463
-3.3416505 16.001186 -0.84011054
-3.4156866 16.098686 -0.81158829
-3.280376 15.968004 -0.84207857
-3.3863623 16.052275 -0.81147653
-3.4677849 16.150232 -0.79372084
-3.3326099 16.014071 -0.81887841
-3.2693682 16.004848 -0.81147766
-3.4996216 16.171946 -0.74465758
-3.3312542 16.044203 -0.76812917
-3.4416325 16.142664 -0.73930699
-3.2958982 16.016476 -0.76444286
-3.3989747 16.093153 -0.74027866
-3.2286832 16.018946 -0.7741394
-3.4629779 16.161366 -0.70752543
-3.4399874 16.1203 -0.6983766
-3.248275 16.038143 -0.72649521
-3.385138 16.093803 -0.69143522
-3.2008595 16.028496 -0.72209466
-3.4843919 16.189484 -0.65983725
-3.3356707 16.050926 -0.6778968
-3.4440176 16.148066 -0.64686638
-3.414633 16.102674 -0.64123261
-3.2308826 16.050425 -0.6770134
-3.3821435 16.078724 -0.64200282
-3.1597679 16.049551 -0.69002366
-3.4639995 16.17264 -0.62357992
-3.3305345 16.053833 -0.65880615
-3.4345505 16.139523 -0.62916762
-3.2644157 16.048738 -0.66049045
-3.3980324 16.102249 -0.62452704
-3.3506582 16.079977 -0.60607469
-3.318429 16.055361 -0.58992809
-3.4187124 16.113056 -0.55398804
-3.2461197 16.063738 -0.59088445
-3.3897026 16.078714 -0.55313241
-3.1738009 16.067734 -0.59617639
-3.3495431 16.049913 -0.55502337
-3.4550817 16.15074 -0.52782494
-3.2834978 16.064266 -0.56067079
-3.4107668 16.112928 -0.52371943
-3.2316875 16.065195 -0.55462122
-3.3622251 16.069012 -0.50811893
-3.3276038 16.043379 -0.49927011
-3.4221852 16.126366 -0.46620765
-3.2633848 16.046783 -0.49450439
-3.1869938 16.077744 -0.48939174
-3.4678783 16.135141 -0.4175179
-3.2982259 16.042313 -0.44831547
-3.427773 16.10434 -0.41868836
-3.2379823 16.060434 -0.45230892
-3.3716698 16.072613 -0.4248614
-3.4769785 16.168541 -0.39682913
-3.3431206 16.049147 -0.42017287
-3.4383934 16.129642 -0.37650761
-3.4063938 16.096905 -0.36283803
-3.2001634 16.066887 -0.39186427
-3.4568348 16.159691 -0.32282609
-3.2827916 16.046268 -0.35277092
-3.2719896 16.030109 -0.3508333
-3.3822541 16.082903 -0.31126431
-3.3410873 16.057308 -0.29429615
-3.4157014 16.146328 -0.26049295
-3.2791944 16.038317 -0.28499997
-3.3885005 16.092886 -0.25127387
-3.335289 16.057634 -0.24217154
-3.274281 16.041088 -0.22955061
-3.3266122 16.05632 -0.18116702
-3.273005 16.0459 -0.17289723
-3.3426948 16.04155 -0.11853881
