# .PCD v0.7 - Point Cloud Data file format
VERSION 0.7
FIELDS x y z
SIZE 4 4 4
TYPE F F F
COUNT 1 1 1
WIDTH 137
HEIGHT 1
VIEWPOINT 0 0 0 1 0 0 0
POINTS 137
DATA ascii
0.093281955 2.9809659 0.52812624
0.0041047256 2.9523757 0.55661583
0.14603415 2.9817138 0.52598995
0.16071668 3.0262325 0.53090733
0.062210549 2.9799397 0.56272149
0.12594958 2.9479403 0.55285293
0.011888291 2.9766057 0.58148396
0.18240848 3.0084007 0.54986387
0.10718352 3.0659587 0.56949681
0.15919194 2.9192665 0.55795324
0.21217719 3.0690503 0.54752582
0.10470714 3.1027238 0.57472414
0.10962463 2.9164877 0.57607394
0.16207887 3.0657382 0.5657385
0.10177844 3.1335497 0.58189964
0.44650424 3.0670323 0.50496411
0.14814989 2.9652517 0.57723975
0.12863106 3.0617626 0.58378094
0.17802683 2.9118991 0.5760107
0.22261457 3.0551455 0.56745481
0.076900803 3.0565052 0.60366893
0.37898961 2.9721568 0.53694361
0.098205745 2.8794427 0.60511988
0.20539334 3.0689549 0.5818522
0.060122065 3.0684087 0.61797512
0.30069536 2.9476666 0.56362635
0.13199809 2.9331071 0.60536075
0.17498966 3.0758786 0.5972001
0.1222584 3.1471734 0.61159641
0.52255076 3.0300674 0.51507503
0.25673231 2.9503071 0.57995611
0.28443465 3.0820661 0.57540864
0.06177162 3.0208757 0.62986094
0.13195498 3.1892316 0.61537105
0.36353144 2.9541664 0.55834198
0.16327824 2.9161959 0.60767621
0.27648464 3.1127198 0.58290023
0.039055496 3.0370672 0.64084965
0.39709815 2.9972956 0.55990875
0.29882291 3.0350044 0.58518589
0.27000648 3.1248901 0.59398806
0.079421654 3.0839047 0.64099997
0.41370377 2.9378748 0.55748254
0.30037752 2.9641416 0.58636177
0.34280059 3.1076233 0.57818884
0.12855479 3.0502954 0.63094324
0.15192527 3.1813681 0.62733775
0.33110386 2.8250442 0.59267217
0.4872449 3.0483823 0.55717516
0.30301881 3.0192342 0.60300714
0.41228104 3.2184699 0.57888842
0.069972456 3.0510406 0.6621477
0.35940555 2.8781493 0.59325844
0.41951853 3.0318959 0.58070147
0.33673102 3.0789988 0.60230565
0.36012894 3.2112536 0.59862226
0.32768759 3.300699 0.60827017
0.40407231 2.8429804 0.58596992
0.47331694 3.0020723 0.57116932
0.36751717 3.0320003 0.59827459
0.3615579 3.1391244 0.60153627
0.35315663 3.2469349 0.60542268
0.30283189 2.7973025 0.61917001
0.54410404 3.085968 0.56320494
0.31386897 3.0185957 0.62004483
0.39920446 3.199301 0.60154533
0.54027075 2.8847778 0.56955045
0.29430789 2.8095796 0.63035583
0.4635832 3.0456538 0.59143162
0.30423844 3.02984 0.63134682
0.49419826 3.2989297 0.58772743
0.50217932 2.8923004 0.58444357
0.64794087 3.1118271 0.55110282
0.37875304 3.0145137 0.6174866
0.31192812 3.0704989 0.63521844
0.52942181 3.3668802 0.58498055
0.38029394 2.8158941 0.62526822
0.57270122 3.0701857 0.58060306
0.38233003 3.0302711 0.62809736
0.34561652 3.1104302 0.63862735
0.5378871 2.8632014 0.59038448
0.36385971 2.8379533 0.63402092
0.48486665 3.0388429 0.60650086
0.37200257 3.0580049 0.63534892
0.5221687 3.2968261 0.60103405
0.56688261 2.9092069 0.59160805
0.59471732 3.039248 0.58656573
0.42020422 3.0109982 0.63035655
0.39138246 3.0970464 0.63899273
0.59316057 2.8436646 0.5924539
0.5486052 3.0245752 0.60652888
0.42840505 3.0372822 0.63722718
0.33896229 3.0720499 0.66045904
0.59809905 2.8780835 0.59755182
0.67301321 3.0435305 0.58101565
0.49838546 3.0154848 0.62494421
0.46190846 3.0953932 0.63541305
0.3121554 3.0784829 0.67319334
0.64176226 2.9475162 0.59103799
0.56044358 2.9927275 0.6123687
0.48638731 3.0421402 0.6319142
0.56186014 3.2169683 0.61530203
0.30720797 3.1097305 0.67844558
0.70471513 2.9006989 0.58585751
0.68608761 2.9944975 0.59191918
0.56589341 3.0084958 0.62268937
0.55218166 3.1071656 0.62756884
0.46178749 3.1419861 0.65105134
0.73808318 2.9602208 0.58295435
0.61034936 2.9692309 0.61560166
0.52915782 3.0118878 0.63686383
0.55268115 3.1415348 0.63265616
0.35115623 3.0781751 0.68310255
0.74129897 2.9959526 0.58887255
0.56750351 2.9668655 0.63274926
0.51674223 3.0331223 0.64657289
0.59144181 3.2076838 0.62989748
0.67443913 2.9581037 0.61700565
0.55542612 2.9693487 0.647533
0.58584946 3.215507 0.64312261
0.59466678 2.9309468 0.64149922
0.56717056 3.0152438 0.64967275
0.71286845 2.9475825 0.61890662
0.59410965 2.9585047 0.64945239
0.52859622 3.0105984 0.66694522
0.62492883 3.204144 0.64497828
0.62146264 2.9080117 0.64787799
0.57172352 2.9728601 0.66150242
0.80187386 2.9618366 0.61371046
0.622082 2.9231341 0.65926224
0.57211822 2.987114 0.67295396
0.67589581 2.8981876 0.65018272
0.61125112 2.9501393 0.66747391
0.66806328 2.900867 0.66752034
0.63966745 2.9410517 0.69180149
0.6528554 2.9605865 0.70533913
0.67678249 2.911509 0.70520526
