# .PCD v0.7 - Point Cloud Data file format
VERSION 0.7
FIELDS x y z
SIZE 4 4 4
TYPE F F F
COUNT 1 1 1
WIDTH 93
HEIGHT 1
VIEWPOINT 0 0 0 1 0 0 0
POINTS 93
DATA ascii
2.9746954 54.49041 0.82025731
3.0141439 54.47258 0.80946738
3.069694 54.485405 0.78576976
3.1341875 54.51778 0.78126323
2.6749878 54.365841 0.89574164
2.7447975 54.427242 0.86790651
2.7909255 54.419449 0.83502614
2.8521454 54.471283 0.81310171
2.920661 54.442589 0.81514013
2.4770949 54.344795 0.93350095
2.9731193 54.462551 0.8039484
2.5682626 54.35334 0.90968305
3.0897689 54.489685 0.76642901
2.6510329 54.421413 0.87211472
2.2549286 54.489033 0.95397615
2.7381599 54.420853 0.8155883
2.3184006 54.398167 0.91885084
2.8382106 54.469234 0.78238893
2.4147499 54.386471 0.89570862
2.9159012 54.456585 0.76371205
2.518487 54.36356 0.87631398
3.0430613 54.492657 0.73567432
2.5999808 54.361366 0.8454439
3.1495223 54.540222 0.67327458
2.7042222 54.399548 0.76815498
2.2877736 54.444176 0.86699581
2.7742667 54.428802 0.7393809
2.3762608 54.453068 0.85329336
2.8621638 54.417248 0.72752821
2.4547107 54.352261 0.83713675
2.9604664 54.465927 0.70112318
2.5158744 54.341736 0.82187164
3.0505347 54.475006 0.69676614
2.6012857 54.370876 0.81784517
2.6882455 54.380516 0.80608761
2.2654221 54.481625 0.9171102
2.7439644 54.420258 0.78107268
2.3273232 54.471607 0.89641589
2.8381515 54.439774 0.73791969
2.4022155 54.431801 0.8484329
2.9185317 54.490387 0.70601428
2.4694507 54.382557 0.82409894
2.5296874 54.332008 0.82691866
3.0540843 54.479645 0.70062184
2.6107669 54.391483 0.82509619
3.1412072 54.50872 0.69610667
2.2952297 54.476665 0.92933649
2.8382993 54.416107 0.78866112
2.4152777 54.422844 0.90089738
2.929879 54.432838 0.76452237
2.5217025 54.340504 0.87889117
3.0292594 54.490856 0.74657315
2.5848582 54.349575 0.87144154
3.114794 54.459446 0.76227015
2.7624409 54.377487 0.91038257
2.3299143 54.471684 1.0302368
2.823128 54.376957 0.90713531
2.3841956 54.391933 1.0250095
2.8845277 54.418236 0.90178859
2.4309151 54.34367 1.0248517
2.9294734 54.410564 0.90659666
2.9663768 54.422199 0.9039672
2.5461411 54.357273 1.0239334
3.0235624 54.413635 0.90149194
2.5949101 54.337681 1.0242739
3.0952728 54.454456 0.89890331
2.6590996 54.338715 1.0168926
2.7253714 54.369602 1.0005318
2.7845852 54.420105 0.99286395
2.3767614 54.369442 1.1053118
2.8638597 54.399704 0.9692868
2.4382637 54.359528 1.0769126
2.945369 54.400139 0.93771565
2.5067503 54.310417 1.0516521
2.9861708 54.431114 0.92527521
2.5725677 54.341076 1.055197
2.6249433 54.361099 1.0680213
2.7196093 54.400021 1.0604589
2.8096683 54.399818 1.0288092
2.3787863 54.335972 1.1324304
2.8587053 54.430748 0.99186563
2.4443061 54.306984 1.107165
2.9311523 54.441925 0.97863185
2.4885244 54.31765 1.1072866
3.0042031 54.402149 0.99289656
3.0696163 54.411144 1.018699
2.6529911 54.3368 1.1340041
2.7004356 54.377048 1.1374302
2.7650476 54.387974 1.1591513
2.841068 54.40844 1.1528137
2.8941252 54.418602 1.1556621
2.9544296 54.39983 1.1455538
3.0137167 54.440708 1.1591223
