# .PCD v0.7 - Point Cloud Data file format
VERSION 0.7
FIELDS x y z
SIZE 4 4 4
TYPE F F F
COUNT 1 1 1
WIDTH 1519
HEIGHT 1
VIEWPOINT 0 0 0 1 0 0 0
POINTS 1519
DATA ascii
-0.13934885 1.7943467 0.16386841
-0.16116351 1.9036649 0.17086901
-0.26817042 1.9842203 0.19704276
-0.14612952 2.1448495 0.17171577
-0.24719903 2.2264814 0.19653809
-0.66707474 2.1770449 0.29269072
-0.94815409 2.1706331 0.35754049
0.72329414 1.4667078 -0.036788851
0.70716137 1.5904363 -0.030833641
0.48067513 1.6609056 0.022796096
-0.047635999 1.6411026 0.14458172
-0.094931439 1.7432345 0.15735523
-0.097210869 1.8587554 0.15996285
-0.24080244 1.9284315 0.1944173
-0.27421471 2.0325429 0.20401594
-0.089293368 2.2179811 0.16460083
-0.47388834 2.1887581 0.2529974
-0.68365669 2.2175515 0.30201912
0.7499823 1.5291928 -0.03429123
0.70436788 1.6459529 -0.021623632
0.25077394 1.6541016 0.083427005
-0.08816997 1.6785424 0.1622614
-0.061158974 1.801915 0.15825748
-0.064458899 1.9177395 0.16112606
-0.26421088 1.9674577 0.20823073
-0.21543266 2.1005878 0.19936967
-0.24257296 2.2080624 0.20760052
-0.57128459 2.1944373 0.28338769
0.81977761 1.4666694 -0.040137812
0.79418021 1.5885029 -0.032032136
0.57721132 1.6616659 0.019473754
0.030034212 1.6373125 0.1456295
0.001597347 1.7449619 0.15413947
-0.00066649768 1.8608083 0.15674303
-0.16283238 1.9247278 0.19540967
-0.2607334 2.0061288 0.21952261
-0.04777215 2.2005453 0.17373562
-0.40473866 2.1815829 0.25599113
-0.46049458 2.2738383 0.27054825
0.82930022 1.5234048 -0.032995217
0.78370452 1.6401987 -0.02040082
0.34894606 1.6536863 0.080376856
0.0098758489 1.6787252 0.15923253
0.036816031 1.8024168 0.15517263
0.033433884 1.9185733 0.15799302
-0.24974635 1.9403343 0.22386667
-0.23736386 2.058974 0.22308487
-0.11756229 2.2204902 0.19821146
-0.46480915 2.2006302 0.27817351
-0.45773882 2.3177974 0.27859309
0.89265615 1.5181531 -0.027666766
0.85662496 1.6371143 -0.017327767
0.43130267 1.6532961 0.081207417
0.10158749 1.681325 0.15785716
0.10040716 1.7968718 0.16008824
0.12504444 1.9218364 0.15651393
-0.2137813 1.925132 0.23485348
-0.2563597 2.0231812 0.24635155
-0.026177339 2.2248251 0.19658558
-0.46441445 2.1689749 0.29689339
-0.45679647 2.2848468 0.29709774
0.91826057 1.5102028 -0.019653007
0.8918404 1.6309831 -0.011514104
0.49494481 1.6543503 0.080577113
0.15578932 1.6799479 0.15936801
0.13590935 1.7898493 0.16581453
0.1513502 1.9114889 0.16429956
-0.12251778 1.9364266 0.22799811
-0.26652694 1.9986261 0.26232219
0.046386983 2.2304428 0.19393191
-0.45557404 2.1494613 0.30854949
-0.48371935 2.2492888 0.31673843
0.97379935 1.4467496 -0.02359964
0.96747786 1.5720505 -0.019997308
0.79801917 1.6567502 0.020687832
0.31674215 1.6510736 0.13203663
0.19419171 1.7327241 0.1618115
0.19206379 1.848246 0.16427861
0.19710243 1.9672767 0.1651457
-0.23389217 1.9348961 0.2644029
-0.23989831 2.0441916 0.26766372
-0.020058073 2.2429705 0.22015078
-0.49342981 2.1669023 0.32847986
-0.47694382 2.2846241 0.32667583
1.0165526 1.4431665 -0.02460012
1.010326 1.5682952 -0.020959444
0.86938053 1.6600316 0.013384169
0.37870392 1.6521631 0.12720805
0.23742211 1.7285111 0.16136545
0.24472855 1.8467705 0.16174488
0.25910449 1.9688696 0.16054986
-0.19030239 1.9302133 0.26425999
-0.26041055 2.0155416 0.28204423
0.041967068 2.24508 0.21583819
-0.45852557 2.1580181 0.3305729
-0.5137707 2.2443137 0.34492424
1.0656301 1.3780149 -0.033024359
1.0700669 1.5051703 -0.031812128
1.0342958 1.6236398 -0.021374106
0.6565876 1.6519283 0.067239746
0.32702264 1.6804471 0.14462931
0.28846225 1.7850431 0.15547626
0.29470426 1.9036897 0.15611869
0.28946945 2.0199316 0.15939653
-0.25151044 1.9441956 0.28427655
-0.23029245 2.0620608 0.28141397
-0.084276348 2.2322705 0.25035807
-0.47462267 2.1837683 0.34058222
1.1098526 1.4434571 -0.038341194
1.0940598 1.5667075 -0.032476142
0.95311248 1.6586698 0.0020849281
0.47192913 1.6537132 0.11444934
0.32120541 1.7277228 0.15098014
0.33779621 1.849052 0.14924516
0.31495279 1.9592062 0.15652835
-0.041996062 1.9527154 0.23983695
-0.25928035 1.985027 0.29119119
-0.084067486 2.1632895 0.25338852
-0.33873889 2.173382 0.31308973
-0.49315837 2.217768 0.3499665
1.148713 1.5100318 -0.041848399
1.1033387 1.6267085 -0.029178843
0.72556919 1.655398 0.059684593
0.37713158 1.6790241 0.14159998
0.34791324 1.7864524 0.15033004
0.35408744 1.9052635 0.15098146
0.34878644 2.0216782 0.1542749
-0.25662261 1.9229935 0.29414818
-0.28079274 2.0224841 0.30155981
-0.10690375 2.2018104 0.26404682
-0.42458394 2.1825149 0.33802101
1.2144771 1.4486401 -0.044821221
1.1795776 1.5679579 -0.034570798
1.0102129 1.6529205 0.0065354942
0.54797781 1.6528132 0.11467086
0.41601995 1.7323018 0.14693326
0.42318642 1.8510699 0.14733392
0.40957862 1.9644628 0.15250206
0.17248999 2.0003545 0.2085977
-0.24738784 1.9604428 0.30613464
-0.19934405 2.0876992 0.29712188
-0.16307461 2.2135339 0.2908383
-0.45300326 2.2014523 0.35846242
1.2690092 1.4485788 -0.041079786
1.253111 1.5723456 -0.03521483
1.0363392 1.6456707 0.016711483
0.60246772 1.6527358 0.11821567
0.47050276 1.7322294 0.1504356
0.48699805 1.8538888 0.14869572
0.47333598 1.9674569 0.15386376
0.45764032 2.0810752 0.15950763
-0.26631781 1.9331807 0.32611287
-0.26337156 2.0413299 0.32730821
-0.17199434 2.1873903 0.308494
-0.49744192 2.1586387 0.38405055
1.338842 1.5156049 -0.039389633
1.2933354 1.6327987 -0.026739666
0.93427461 1.6669861 0.057631575
0.56677246 1.686173 0.1437171
0.54675072 1.796924 0.15030955
0.52480412 1.9074599 0.15734975
0.55645603 2.0366356 0.15220504
0.024296785 1.9653312 0.27514687
-0.25664657 1.9695587 0.34078163
-0.1817679 2.1063676 0.32568309
-0.42569748 2.1133094 0.38272998
1.4004884 1.5176659 -0.038040787
1.3454943 1.6327161 -0.023224663
0.96756744 1.6619251 0.065377243
0.62837255 1.688713 0.14491282
0.61769819 1.8024542 0.14937823
0.5956865 1.9133204 0.15643606
0.59951019 2.0333793 0.15763226
0.40785113 2.0845392 0.20320156
-0.26830244 1.9450792 0.35841694
-0.24746761 2.0589025 0.35554129
-0.46349642 2.0751417 0.4061932
1.4490314 1.455361 -0.038287178
1.4330494 1.5796338 -0.032415327
1.1688504 1.6414548 0.030232139
0.78216738 1.6609385 0.12070054
0.65008426 1.7409124 0.15287168
0.63847691 1.85438 0.15754101
0.64340276 1.9740762 0.15846419
0.61839879 2.0847912 0.16620782
-0.02307887 1.9675285 0.31371832
-0.24853066 1.988277 0.36663809
-0.11093333 2.1505284 0.33737198
-0.58852893 2.0540586 0.44704768
1.4697257 1.3909786 -0.036352746
1.4643219 1.5172101 -0.032918099
1.3998027 1.6297698 -0.015943918
1.0124466 1.6560704 0.074767105
0.7109189 1.6928726 0.14566141
0.69076151 1.8039683 0.15227538
0.66867006 1.9148389 0.15933585
0.69091779 2.0412073 0.15633218
0.55428684 2.1125593 0.18940187
-0.2412138 1.9289809 0.37161154
-0.2564896 2.0274186 0.37687293
-0.36376709 2.0878296 0.40291676
1.4765451 1.4522901 -0.027931279
1.460606 1.5760469 -0.022068175
1.2343224 1.6468407 0.031857137
0.85697305 1.6689007 0.12011538
0.69661409 1.74094 0.15871407
0.70364791 1.8600383 0.15914907
0.70845991 1.9799045 0.16011514
0.67410964 2.0875432 0.16998836
0.14268965 2.0108194 0.29242152
-0.26575249 1.9621044 0.3867057
-0.20920478 2.0895705 0.37575677
-0.52393878 2.0601549 0.44855508
1.5004286 1.5134835 -0.021059651
1.454941 1.6299584 -0.0084522981
1.0487572 1.6506783 0.086526819
0.76616949 1.6919159 0.15307106
0.74602836 1.8026543 0.15967691
0.73326677 1.9161656 0.1646128
0.72772288 2.0329146 0.16792166
0.58205819 2.100179 0.2030198
-0.1125019 1.953601 0.36229846
-0.24626003 2.0055556 0.3943603
-0.60373545 2.0571644 0.47854161
1.5317771 1.3857516 -0.02067719
1.5074464 1.5064591 -0.012914471
1.4810658 1.6267022 -0.0046819192
1.075051 1.6467068 0.090480663
0.79261202 1.6872928 0.15714034
0.76321983 1.7946788 0.16585773
0.75060362 1.9075172 0.17074978
0.75447154 2.0267532 0.17190363
0.63655043 2.1034312 0.20076595
0.024397459 1.9879308 0.34174529
-0.26422325 1.9791451 0.40900624
-0.18129335 2.1171472 0.39201942
-0.46849522 2.095607 0.45873055
1.5600514 1.4462557 -0.020821657
1.5252188 1.5643232 -0.010650726
1.3654749 1.6502203 0.028262137
0.969473 1.6663514 0.12138498
0.79988182 1.7347903 0.16231255
0.7976836 1.8501463 0.16478963
0.79337192 1.9659421 0.16776888
0.76849234 2.0756338 0.17546622
0.71420622 2.1747713 0.18988231
-0.21576791 1.9292877 0.40377921
-0.2491577 2.0176473 0.41311374
1.5600033 1.5055256 -0.020638352
1.5336617 1.6254164 -0.012425287
1.1467434 1.6499205 0.079012707
0.84561723 1.6850613 0.15045024
0.81628072 1.792107 0.15915163
0.79442757 1.9016037 0.16613378
0.81688577 2.0266829 0.16295242
0.68984389 2.0998168 0.1940718
-0.24657917 1.9598875 0.41204855
-0.24444953 2.0625648 0.41327673
-0.26221791 2.1579442 0.41906264
1.6083159 1.4458379 -0.02658201
1.5830228 1.5659668 -0.018589435
1.4233235 1.6518251 0.020501101
0.99920076 1.660138 0.12060147
0.83916032 1.7307875 0.15951765
0.83705211 1.8458109 0.16196117
0.83283955 1.9612685 0.16490933
0.84493637 2.0836158 0.16412763
0.68977773 2.1455185 0.20174775
-0.020897483 1.9842527 0.36653861
-0.26313818 1.9890146 0.42372441
-0.11797218 2.153481 0.39229199
1.653214 1.3848877 -0.033570603
1.6479975 1.5093945 -0.030249728
1.6121742 1.6271214 -0.01980396
1.2254128 1.6515431 0.072076879
0.92440814 1.6866213 0.14385583
0.88576686 1.79083 0.15474477
0.87329036 1.9031509 0.1595823
0.88652742 2.0250652 0.15849727
0.77798408 2.1046705 0.18550736
0.75073004 2.2124796 0.19376481
-0.23980552 1.9319439 0.42336318
-0.25515807 2.0256822 0.42857346
1.6792909 1.4473876 -0.032747183
1.6539408 1.5675105 -0.024764016
1.4942204 1.6533515 0.014448974
1.0419248 1.6538407 0.12149096
0.9194656 1.7349641 0.15181166
0.90793145 1.8472377 0.15639605
0.90366101 1.9626963 0.15931553
0.92490941 2.0882993 0.15636079
0.73304236 2.1366801 0.202567
0.10459357 2.0070243 0.34915754
-0.25549415 1.9640744 0.43367183
-0.23561075 2.0727997 0.43076411
1.7135425 1.3877537 -0.038821358
1.7082393 1.5124274 -0.035520174
1.6723322 1.6303226 -0.025077743
1.2761005 1.6523913 0.069187745
0.96570224 1.68478 0.14328285
0.94574434 1.7944846 0.14981399
0.93316782 1.9069773 0.15463968
0.94629985 2.0290539 0.15353031
0.93871063 2.1454947 0.15723769
0.72814882 2.1853147 0.20779738
-0.11670072 1.9619752 0.40438214
-0.26767993 1.9996629 0.44078973
1.7659988 1.3244765 -0.039592292
1.7522584 1.4469467 -0.034353416
1.7364043 1.5693228 -0.028616248
1.5577598 1.6505154 0.015043064
1.1055462 1.6508799 0.12224223
0.99250776 1.7346017 0.15039206
0.98098081 1.8468683 0.15494254
0.98597431 1.9654131 0.15567659
1.0071738 2.091176 0.15268697
0.82442844 2.1431546 0.19684914
0.75094229 2.232168 0.21570928
-0.24560824 1.9376452 0.44718942
-0.28808415 2.0179167 0.45856175
1.79432 1.3187007 -0.033274736
1.7902002 1.4427387 -0.030318866
1.7839015 1.5670128 -0.026842307
1.6147506 1.6504594 0.014618627
1.1625568 1.6508392 0.12190732
1.0307922 1.7290628 0.1544167
1.037985 1.8468412 0.15458988
1.0337101 1.9622968 0.15744711
1.0457445 2.0846488 0.15654476
0.96384531 2.1738608 0.1774004
0.76245022 2.2142565 0.22582877
-0.22470282 1.9226876 0.45539701
-0.28487021 1.9945135 0.47082299
1.828294 1.5021468 -0.028356254
1.7925543 1.6193656 -0.017989933
1.4342614 1.6508243 0.067664616
1.0769829 1.6699448 0.15288416
1.0572685 1.77881 0.15931055
1.0821157 1.9024721 0.15538305
1.0768307 2.0180449 0.15848789
1.096974 2.1439915 0.15571469
0.87731922 2.1803517 0.20850551
0.76708072 2.253412 0.23587817
-0.22630808 1.9487236 0.4671289
1.8378078 1.4352734 -0.029075202
1.8221641 1.5567884 -0.023374341
1.6910304 1.6492088 0.0093675619
1.2389511 1.649605 0.11707707
1.0697926 1.7168354 0.15847167
1.0865184 1.8368535 0.15643723
1.091692 1.9548907 0.15712526
1.0946485 2.073658 0.15835293
1.0953635 2.1931105 0.16012456
0.81181329 2.2022908 0.22783466
-0.012315673 1.9775883 0.4205465
-0.26179916 1.9699122 0.47987026
1.8647882 1.4918472 -0.026814166
1.8481483 1.6130439 -0.020838181
1.5088873 1.6491588 0.060816459
1.1423105 1.6656224 0.14867432
1.1133112 1.7714924 0.1573513
1.1196768 1.8888117 0.15776849
1.1423129 2.013222 0.15441401
1.1441472 2.1323326 0.1559446
0.96121937 2.1821899 0.20047827
0.77842462 2.22614 0.24488485
-0.22330973 1.9165305 0.47913846
1.9004762 1.4853568 -0.028716652
1.8934121 1.6085455 -0.024915975
1.5731367 1.649523 0.05265544
1.1878531 1.6608752 0.14532438
1.1496031 1.7637352 0.15626535
1.1560947 1.8807245 0.15670805
1.1696311 2.0016325 0.15552782
1.171663 2.120249 0.15707034
1.0345888 2.187103 0.19111669
0.80641228 2.21312 0.24633239
-0.032944273 1.9718999 0.44368762
1.9433742 1.4185489 -0.032725647
1.946999 1.5436896 -0.031431038
1.8350356 1.6404746 -0.0027992069
1.4114931 1.6486419 0.099318027
1.1862607 1.6997985 0.15443645
1.1939702 1.8162251 0.15459919
1.1995001 1.9334221 0.15529886
1.2212461 2.057838 0.15221903
1.2496978 2.1870201 0.14760754
0.96634048 2.1963301 0.21600106
0.77483726 2.233525 0.26276231
-0.22336796 1.9137998 0.49760133
1.96464 1.478144 -0.034092292
1.9387574 1.5965148 -0.025797876
1.6658387 1.6496124 0.040956762
1.2618202 1.6561792 0.1385289
1.2143048 1.7562373 0.15172657
1.2116268 1.8700608 0.15434839
1.2253345 1.9906243 0.15313411
1.227543 2.108906 0.1546541
0.91706431 2.2232299 0.23153804
-0.10246626 1.9068074 0.47200474
2.0122867 1.4723265 -0.035840314
1.9770308 1.5882232 -0.025269818
1.7231004 1.6460676 0.037181273
1.3285246 1.6554409 0.13280433
1.2530067 1.7472141 0.1526929
1.2504692 1.8607023 0.15530761
1.2458565 1.9746163 0.15843238
1.275867 2.1022072 0.15342145
0.92028087 2.198076 0.24114509
0.74724823 2.2393396 0.28373906
2.0471969 1.404925 -0.0352057
2.0415254 1.5273271 -0.031654179
1.9864793 1.6379278 -0.016347043
1.5629987 1.6467506 0.086449213
1.3097059 1.6901997 0.14861496
1.2989123 1.800634 0.1531972
1.2954031 1.9142569 0.1560697
1.3082291 2.0347645 0.15510577
1.3553346 2.1699128 0.14609228
1.1540892 2.2110441 0.19560467
0.89907074 2.2232499 0.2576395
0.65437061 2.2308941 0.31709284
2.0554833 1.4630569 -0.033386596
2.0393071 1.583088 -0.027332462
1.7949039 1.643316 0.033047583
1.4004073 1.6527954 0.12895538
1.2969295 1.7361217 0.15554841
1.3038617 1.8521003 0.15592401
1.3086215 1.9688356 0.15684001
1.3387269 2.096252 0.15179585
1.2567881 2.1835244 0.17323026
0.94709933 2.1773045 0.24828397
0.81042796 2.2330396 0.28244585
2.0871596 1.5193464 -0.02884631
2.05112 1.6342524 -0.018048845
1.6277342 1.642957 0.085017815
1.3558022 1.6807947 0.15178913
1.3451496 1.7907357 0.15633082
1.35105 1.9069365 0.15695965
1.3547666 2.0238755 0.15813152
1.402032 2.1585259 0.1490317
1.1737086 2.1884968 0.2050675
0.91004962 2.1960318 0.26929536
0.74652666 2.2375853 0.30978587
2.126966 1.4611652 -0.034785829
2.1108828 1.5810225 -0.028725902
1.8948755 1.6485262 0.025060924
1.4722769 1.6503496 0.12796625
1.3782457 1.7363279 0.15239735
1.3666623 1.8463346 0.15718861
1.3808043 1.965901 0.15588662
1.4110026 2.0931661 0.15081251
1.1467642 2.1105683 0.21545687
0.98342377 2.1592679 0.25609872
0.90113336 2.2370501 0.27752873
2.1331863 1.5187156 -0.029178889
2.0971663 1.6334386 -0.018356187
1.6926614 1.6470057 0.0804215
1.4019952 1.6794606 0.15180776
1.4006679 1.7921411 0.15414457
1.3972806 1.9052665 0.15699185
1.4102237 2.0252829 0.15598232
1.4300061 2.1497345 0.1533868
1.0745963 2.1292002 0.23960297
0.89327294 2.1674809 0.28446233
0.80199164 2.238832 0.30797607
2.1872692 1.4596118 -0.032153077
2.1617293 1.5768026 -0.023807287
2.0400147 1.6686019 0.0075428924
1.5421278 1.6501291 0.12866609
1.438767 1.7330632 0.15538174
1.4457761 1.8487231 0.15576397
1.4506183 1.965133 0.1566889
1.4532634 2.0822701 0.15816118
1.280443 2.1337826 0.20125768
0.97177124 2.1249528 0.27640641
0.93504649 2.2201409 0.28709164
2.2058702 1.5213964 -0.032547951
2.1603763 1.6336935 -0.019396756
1.7183896 1.6365945 0.088634148
1.4560457 1.6763002 0.15344881
1.4547728 1.7886407 0.15579914
1.4607046 1.9045123 0.15645449
1.4736567 2.0243742 0.15546533
1.4751539 2.1418481 0.1572327
0.99276084 2.0706422 0.27380252
0.92984396 2.154623 0.29070076
0.82984978 2.2213862 0.31634706
2.2391171 1.4612348 -0.036609411
2.2041385 1.576095 -0.025919799
2.0825036 1.6676735 0.0055490374
1.5941699 1.6515253 0.12477829
1.4815202 1.7315917 0.15383947
1.4885932 1.8470794 0.15425372
1.4934956 1.9633322 0.15521118
1.4962156 2.0802999 0.15671788
1.5514169 2.2188966 0.14577629
0.91537935 2.0822768 0.29895231
0.92440081 2.194591 0.29883221
2.2628496 1.5186218 -0.030842707
2.2268744 1.6329746 -0.019894687
1.7944186 1.6381137 0.086152941
1.5321295 1.6777204 0.15115544
1.5401589 1.7929845 0.15134138
1.5460362 1.9090178 0.15207137
1.5405328 2.0225546 0.15554152
1.542084 2.1398623 0.1573537
1.0416955 2.0611577 0.27849245
0.94287789 2.1296759 0.3039884
0.87023807 2.2069709 0.32323456
2.2987988 1.4585996 -0.033901397
2.2732687 1.5754263 -0.025472241
2.1516051 1.6668034 0.0060570105
1.6633164 1.6503346 0.12548998
1.5506461 1.7302012 0.15460238
1.566951 1.8485233 0.15280066
1.5625443 1.9616092 0.1559819
1.5743991 2.0817423 0.15530489
1.6203862 2.2168558 0.14653438
0.95728672 2.068912 0.30640849
0.93050444 2.1653044 0.31476822
0.80383092 2.2175684 0.34680703
2.3066592 1.5173761 -0.031243013
2.2518127 1.6267343 -0.015773987
1.857072 1.6416405 0.081378415
1.5853878 1.678637 0.14873855
1.5933725 1.7938972 0.14889559
1.5899526 1.906852 0.15181114
1.5844609 2.0202179 0.15524195
1.5768803 2.1339514 0.15919177
1.4400176 2.1979334 0.19395959
0.92379159 2.1006074 0.31887883
0.99497551 2.2390118 0.30395034
2.3312232 1.4546628 -0.031204941
2.3057926 1.5711513 -0.022814486
2.1842473 1.6621877 0.0087114088
1.7148573 1.650701 0.12377204
1.5928934 1.7277355 0.15514506
1.599999 1.8428847 0.15552397
1.6049449 1.9588014 0.15644756
1.6077069 2.0754406 0.15791921
1.5353553 2.1647911 0.17733683
1.0181069 2.0729156 0.30268708
0.94633359 2.1503668 0.32174623
0.83781219 2.2099478 0.3495031
2.3656437 1.5141835 -0.030801119
2.3203454 1.6256093 -0.01764288
1.9821087 1.6558009 0.066146754
1.6542011 1.677096 0.14723577
1.6715677 1.7951063 0.14509505
1.6496758 1.9018952 0.15241183
1.6535162 2.0181804 0.15356806
1.6368799 2.1283348 0.15965271
1.6636745 2.256381 0.15537062
0.98424286 2.0942619 0.31968558
1.0018275 2.2089453 0.31743148
2.3908257 1.4515761 -0.03221067
2.374856 1.5700556 -0.026147326
2.234482 1.6559061 0.0099834027
1.765269 1.643852 0.12538666
1.6806991 1.7316973 0.14780512
1.6784065 1.8440189 0.15038876
1.6832767 1.9599319 0.15127236
1.6768 2.0732391 0.15490547
1.5042325 2.1239512 0.19834298
1.2864611 2.1508112 0.25249171
0.98860884 2.1361206 0.32562932
0.93384743 2.2189403 0.34061468
2.4456828 1.5141215 -0.036318179
2.3909514 1.623131 -0.020832457
2.0622087 1.6557163 0.060959749
1.7250183 1.6742451 0.14458951
1.7424108 1.7920883 0.14242154
1.71132 1.8956273 0.15197192
1.7152559 2.0115733 0.15309499
1.6621692 2.1077392 0.16794632
1.4804517 2.152498 0.21364789
1.1727105 2.1390121 0.28943467
1.0462346 2.1931977 0.32166207
2.4730754 1.4533222 -0.040781457
2.4381747 1.5673134 -0.030107865
2.3166988 1.6579863 0.0015654756
1.8381817 1.6434486 0.11967912
1.7536361 1.731294 0.14216851
1.7606227 1.8466173 0.14250594
1.7285671 1.950025 0.15228862
1.7222562 2.0628366 0.15586907
1.5134652 2.0990763 0.2081724
1.4952477 2.2053027 0.21458258
1.0976778 2.1510093 0.31197011
1.0605158 2.2424302 0.32280374
2.4807503 1.5091915 -0.036692981
2.4449885 1.6226912 -0.025805132
2.1257057 1.6578876 0.053925823
1.7698609 1.6711124 0.14232779
1.7780278 1.785871 0.14235765
1.78405 1.9014165 0.14293256
1.7235501 1.9949546 0.15959667
1.6981865 2.1005397 0.16776986
1.4258491 2.1092169 0.23540722
1.4525591 2.2321908 0.23098861
1.0648781 2.1772761 0.32607663
0.98291028 2.2472494 0.34764341
2.5317762 1.4495803 -0.040931236
2.4969826 1.5632349 -0.030303625
2.4132667 1.6635686 -0.0077715996
1.944144 1.6520309 0.1084244
1.8315455 1.7318825 0.13776697
1.820011 1.841202 0.14254998
1.7512106 1.9316213 0.16120921
1.7360895 2.0401103 0.16686779
1.5277638 2.0752063 0.21917926
1.4466634 2.1546752 0.24070239
1.3375825 2.2204006 0.26892671
1.1654872 2.2549868 0.31224373
2.5487483 1.508487 -0.037252225
2.4846754 1.6145672 -0.019487435
2.2124736 1.6619511 0.048914276
1.8378925 1.6697804 0.14204018
1.8553264 1.7872928 0.1397751
1.8520312 1.899756 0.14256807
1.7455634 1.9768618 0.17035221
1.7204683 2.0814564 0.1784198
1.4575435 2.0926833 0.24389246
1.3943253 2.1774323 0.26107723
1.204549 2.2058988 0.30869547
1.0332112 2.2363503 0.35177219
2.572021 1.4453378 -0.035601243
2.5562203 1.5631268 -0.029570714
2.4349155 1.6532549 0.0021914956
2.0128984 1.6540377 0.1071058
1.8723532 1.7253247 0.143317
1.879491 1.8401489 0.14359632
1.7830933 1.9208595 0.16900335
1.7406904 2.0186682 0.18129465
1.5874262 2.0735343 0.22037651
1.4340302 2.123507 0.25940797
1.4243309 2.2298002 0.26372096
1.2253817 2.2526844 0.31359455
2.5956681 1.5041115 -0.033194486
2.5316691 1.6096531 -0.015396385
2.2783723 1.6615866 0.048556946
1.9412246 1.68012 0.1327818
1.9027058 1.7806039 0.14415181
1.9179912 1.8987381 0.14244792
1.7472285 1.9528457 0.18590328
1.7407987 2.0629587 0.18946086
1.5145392 2.0874262 0.24620229
1.4333825 2.1643312 0.26776728
1.3959944 2.2584889 0.27874634
1.1527317 2.2584095 0.33928797
2.6162691 1.4429579 -0.035452481
2.6005199 1.560406 -0.029426705
2.4793019 1.6501485 0.0023991889
2.0855346 1.6584858 0.10071761
1.9077001 1.7185315 0.14613211
1.9334924 1.8388779 0.14185596
1.8279343 1.9162165 0.16956083
1.7398311 1.9969904 0.19297519
1.7326322 2.1067042 0.19673564
1.4611617 2.110436 0.26449448
1.433733 2.2084305 0.27308965
1.2887025 2.2542112 0.31007773
2.6409786 1.503122 -0.03608894
2.567585 1.6060532 -0.015937958
2.3519311 1.6679606 0.038999245
1.9774054 1.6757244 0.13264
1.9296745 1.7729409 0.14628242
1.9543205 1.8936708 0.14227483
1.7469406 1.9343781 0.19477512
1.731692 2.0400815 0.20046064
1.5784531 2.092036 0.23964328
1.533275 2.1840754 0.25255916
1.5313393 2.2946575 0.25500906
1.234238 2.2715619 0.32878038
2.6839135 1.4414899 -0.040069714
2.668175 1.5587672 -0.034064237
2.4999833 1.6358075 0.0093947416
2.1720567 1.6618205 0.091941237
1.9662491 1.7134961 0.14437239
1.9920985 1.8335086 0.14001715
1.9142718 1.9200244 0.16102569
1.7528443 1.9742471 0.20239399
1.7369162 2.0793045 0.20823489
1.4930848 2.092716 0.2695159
1.465947 2.1898987 0.27802444
1.419276 2.2787464 0.29127717
2.7050924 1.5018357 -0.041887593
2.6788485 1.6167041 -0.033329211
2.425566 1.6689138 0.031082144
2.0418062 1.6739115 0.12740073
1.9941304 1.7709523 0.14102799
2.0188084 1.8915219 0.136915
1.7931633 1.9255482 0.19408618
1.7415671 2.0170698 0.20860139
1.724816 2.1216512 0.21460275
1.6431191 2.2000043 0.23643984
1.6945775 2.3346868 0.22585362
1.3880148 2.3091154 0.30229491
2.7864773 1.3848071 -0.048822012
2.7811725 1.5043079 -0.045478582
2.7455158 1.6167483 -0.034623031
2.4641898 1.6609561 0.036824528
2.1273537 1.6789898 0.12178618
2.0610712 1.7703398 0.13998577
2.0950308 1.8938383 0.13353154
1.8510765 1.9212964 0.19531211
1.7539743 1.9953516 0.22096768
1.7739066 2.1131375 0.21794234
1.7194295 2.2022343 0.23313677
1.7261692 2.3173776 0.23338301
1.4821452 2.3194242 0.29476008
2.8132634 1.4449539 -0.047595855
2.7880034 1.559886 -0.039332543
2.6762209 1.6517664 -0.0097020483
2.2732797 1.6571126 0.091684163
2.0955365 1.7167642 0.13736328
2.1027765 1.8307669 0.13744263
2.1078787 1.9455271 0.13807176
1.762983 1.9340129 0.22459081
1.747726 2.0369387 0.23014195
1.7848225 2.1619077 0.22289684
1.7026459 2.2390101 0.24484217
1.5927746 2.3018339 0.27351335
2.8218048 1.5029287 -0.044149246
2.7955463 1.6176268 -0.035660181
2.4860551 1.6540372 0.042767107
2.1773148 1.6798304 0.12083221
2.110981 1.7711676 0.13901803
2.1356428 1.8915809 0.13479719
1.9467911 1.9384179 0.18306108
1.7307436 1.9687679 0.23789619
1.7964162 2.1031933 0.22359255
1.7690866 2.2030466 0.23210804
1.5969592 2.2399585 0.27600572
1.4252284 2.2713625 0.31971446
2.8572903 1.4434139 -0.045931645
2.8320975 1.5581726 -0.037701078
2.7485733 1.6574017 -0.015054885
2.3268833 1.6577173 0.091030948
2.1398647 1.714519 0.13901679
2.1471756 1.8283494 0.13905691
2.1431451 1.9397655 0.14191027
1.7892532 1.9245646 0.23069413
1.7287149 2.009464 0.24732751
1.8114897 2.1514828 0.22884625
1.711586 2.2204297 0.25512004
1.6466078 2.3024065 0.27282244
2.8916616 1.5025107 -0.044863779
2.8560596 1.6146156 -0.034117959
2.556107 1.6532502 0.04205928
2.256825 1.6815945 0.11790654
2.181247 1.7700094 0.13835035
2.2059851 1.8902574 0.13402545
2.1641133 1.989084 0.14614265
1.7465895 1.9465165 0.25066346
1.7673675 2.061857 0.24725854
1.848843 2.2047858 0.22899735
1.6052763 2.210376 0.29045829
2.9122725 1.4414544 -0.04603624
2.9059439 1.5605547 -0.042580899
2.8035553 1.6547551 -0.015295293
2.391326 1.6573436 0.088697158
2.204314 1.7139444 0.13673943
2.2115862 1.8276132 0.1366802
2.2075241 1.9388698 0.13944219
1.8811504 1.9334741 0.22166361
1.7294973 1.9836155 0.26069084
1.8397461 2.1353543 0.23525777
1.7580438 2.2111452 0.25704655
1.5329213 2.2207553 0.31397212
2.9507244 1.4986452 -0.044711646
2.9434347 1.617678 -0.04101732
2.7090862 1.6746205 0.019064162
2.3348591 1.6821957 0.11371439
2.2592797 1.7705954 0.13418514
2.2563043 1.8815559 0.13666449
2.2512918 1.9929281 0.13966465
1.7790475 1.9299517 0.25798774
1.7638515 2.0301085 0.26338869
1.8908522 2.1903303 0.23380016
1.7190647 2.2265725 0.27776673
2.9871709 1.4413558 -0.050985832
2.9619639 1.5557706 -0.042853951
2.859679 1.6496357 -0.015543854
2.4663036 1.6572498 0.084057964
2.2700195 1.711013 0.13452628
2.2865891 1.8275281 0.13212712
2.2825246 1.9387834 0.13486607
2.0568426 1.9701822 0.19242784
1.7500308 1.9624981 0.26990724
1.8064302 2.0912313 0.25762385
1.7882683 2.1919122 0.26376581
1.5368048 2.1887448 0.32731929
3.0203285 1.4997371 -0.051729448
2.9847703 1.6116639 -0.040997382
2.7786708 1.6760892 0.012196267
2.3764837 1.6756092 0.11405874
2.319582 1.7695432 0.1299224
2.3166237 1.8804995 0.13238455
2.3208075 1.9951271 0.1330955
1.8577001 1.9358106 0.24949071
1.7427286 1.9968344 0.27955917
1.9062846 2.1705716 0.24081171
1.7884711 2.2294941 0.27156895
3.0454078 1.4339353 -0.051220268
3.0392284 1.5526925 -0.047839269
2.9276426 1.6440886 -0.018140718
2.5250664 1.6490283 0.084044397
2.3289666 1.7025324 0.13460384
2.3457134 1.8187034 0.13213174
2.3510334 1.9328024 0.1325275
2.3633521 2.0509632 0.1312086
1.7551903 1.9318748 0.28365988
1.7579579 2.0372796 0.28457141
1.8483768 2.181639 0.26384318
1.71286 2.2301123 0.29896417
3.081234 1.4947115 -0.053783845
3.0457304 1.6064854 -0.043088377
2.8115871 1.6630597 0.017206583
2.4562414 1.67586 0.10761298
2.3900232 1.7670603 0.12579839
2.3870747 1.8780177 0.12821896
2.3820891 1.9893868 0.1311613
2.0011358 1.960892 0.22745375
1.7407267 1.9659162 0.29364783
1.7967787 2.0933323 0.28133622
1.8679053 2.2311497 0.26535335
3.0960462 1.4314985 -0.054876637
3.0804343 1.5479252 -0.049196403
2.9782736 1.6416953 -0.02186317
2.6131046 1.6574814 0.07114584
2.3796051 1.7003907 0.13110267
2.3963461 1.8165504 0.12855981
2.3924534 1.9274746 0.13117951
2.3956716 2.0421331 0.13204819
1.8057988 1.9299648 0.28027436
1.7363101 2.0060661 0.29905087
1.9348432 2.1949866 0.25138688
1.816856 2.2521341 0.28220525
3.1563191 1.4925816 -0.057533458
3.1114149 1.6019613 -0.044564672
2.8585851 1.6533089 0.02045273
2.5220404 1.6712737 0.10628482
2.4373233 1.7565026 0.12903568
2.4622138 1.8762286 0.12440295
2.4388816 1.9811109 0.1318215
2.4228442 2.0891263 0.13742959
1.7524611 1.9393811 0.30578557
1.75495 2.0431776 0.30662397
1.9073329 2.2140112 0.27029237
3.1469851 1.4251229 -0.051386759
3.1409593 1.5433846 -0.048224248
3.0483317 1.639356 -0.02332907
2.748728 1.6737415 0.053393736
2.4499047 1.6978549 0.12977928
2.4667385 1.8138522 0.12709495
2.453742 1.9214535 0.13188551
2.466264 2.03913 0.13032079
1.9492825 1.9549127 0.26074716
1.7439754 1.9772475 0.31331423
1.8174895 2.1113276 0.29645258
1.9146446 2.2605815 0.27377942
3.183301 1.4874252 -0.053324755
3.1479065 1.5987176 -0.042814877
2.8857973 1.6471219 0.024574688
2.5773866 1.6728302 0.10344938
2.4741023 1.7522142 0.13081737
2.4898405 1.8685199 0.1283768
2.4758196 1.9761559 0.1333966
2.4963458 2.0975146 0.12980434
1.7625141 1.9229876 0.31431884
1.7292951 2.0110052 0.32396495
1.9358083 2.2038288 0.27397418
1.9332904 2.3111587 0.27606142
3.2266157 1.4267641 -0.054930735
3.2111249 1.5426891 -0.049409386
3.1185279 1.6384646 -0.024491051
2.800302 1.6672729 0.057064846
2.5202484 1.696497 0.12889364
2.5278411 1.8093299 0.12848894
2.5241218 1.9197648 0.13093878
2.5275178 2.0339348 0.13162445
2.1379654 1.9982864 0.23050946
1.7604263 1.9529314 0.32620272
1.762612 2.0552888 0.32703924
1.9229987 2.2300506 0.28850284
3.2564387 1.4892126 -0.057940807
3.211607 1.5980747 -0.045014605
2.9495721 1.6462353 0.022553939
2.631928 1.6689228 0.10397924
2.5380042 1.7508641 0.12907763
2.5445304 1.8639271 0.12894627
2.5397594 1.9744855 0.13166635
2.5602958 2.0956895 0.1280659
1.8900995 1.9458553 0.29719484
1.739544 1.9861404 0.33619401
1.8303071 2.1271045 0.31493017
1.9354687 2.2800467 0.2901502
3.2798312 1.4294252 -0.05879131
3.2549107 1.5430163 -0.050847322
3.1717534 1.6410928 -0.028224478
2.8349094 1.6644216 0.058237489
2.5643077 1.696039 0.12787671
2.5811927 1.8117179 0.12516238
2.5682678 1.9189754 0.12995496
2.5717101 2.0329843 0.1306563
2.5457366 2.1371791 0.13874368
1.7598147 1.9330043 0.33692664
1.7354853 2.0229113 0.3444005
1.8786136 2.1883161 0.31008825
3.3045046 1.4898138 -0.05818918
3.2784901 1.6033298 -0.049977344
2.9977067 1.6463629 0.022454921
2.7080941 1.6770295 0.096972741
2.6047924 1.7563431 0.12449391
2.6020064 1.8664703 0.12671961
2.5972025 1.9770296 0.12946764
2.6177011 2.0982409 0.12588714
2.0200717 1.9768188 0.27713847
1.7341374 1.9620904 0.35010308
1.7449316 2.0667644 0.34878016
1.8776876 2.2294006 0.31704527
3.3551672 1.432744 -0.061672248
3.349 1.5509967 -0.058462165
3.2281263 1.6393332 -0.026279017
2.8539791 1.6514437 0.069747098
2.6486881 1.7018484 0.12303922
2.6654191 1.817703 0.12035231
2.6523433 1.9251215 0.12518421
2.6647601 2.0426471 0.12362172
2.6294918 2.1436431 0.13405162
1.8075517 1.9245664 0.34163776
1.7474813 1.9986434 0.35805517
1.8553452 2.1470234 0.33246398
3.3840928 1.4959576 -0.063368171
3.3767927 1.6144873 -0.059875514
3.0584393 1.6474882 0.022183966
2.768898 1.677838 0.09682174
2.6934202 1.7657228 0.11737353
2.6812639 1.8730888 0.12196269
2.6946781 1.9903442 0.12012891
2.6967251 2.105197 0.12117947
1.7412887 1.9388793 0.36383915
1.7346269 2.0345998 0.3668609
1.8678894 2.195868 0.33490813
3.4518378 1.4411911 -0.065806463
3.4643507 1.5644723 -0.06732899
3.3150976 1.6458763 -0.027975358
2.912859 1.6499122 0.075143173
2.7633765 1.7169836 0.11436209
2.7520919 1.8244587 0.11872427
2.7388828 1.9320343 0.12357921
2.7603006 2.0530827 0.11974552
2.6885161 2.1403372 0.13933173
1.9209149 1.942557 0.33332244
1.7530395 1.9711913 0.37673438
1.7812998 2.0823543 0.3710137
3.5228829 1.4492403 -0.065723397
3.5258546 1.5705215 -0.064833827
3.3389692 1.6419339 -0.016085047
2.9554842 1.6506406 0.082075
2.8245904 1.7231885 0.11652683
2.8132048 1.8308202 0.1209003
2.809087 1.9417434 0.12346014
2.8212061 2.0597723 0.12196462
2.7947268 2.1647358 0.13016313
2.0898941 1.9933339 0.30804777
1.742021 1.9471446 0.39636767
1.7351365 2.041187 0.39940915
3.5686536 1.3897436 -0.059960485
3.5821681 1.5129287 -0.061742865
3.5464201 1.6248146 -0.051109277
3.1811121 1.6446398 0.042350087
2.900986 1.6767926 0.11425021
2.871932 1.7788136 0.12304351
2.8595958 1.8864979 0.12764767
2.8728304 2.004096 0.1258619
2.8746779 2.1192787 0.1269473
2.6299739 2.137892 0.18963385
1.8740097 1.9338353 0.37975624
1.7514609 1.9780438 0.41162753
1.7882833 2.0919528 0.40377855
3.608304 1.4549805 -0.061529011
3.5923193 1.5717241 -0.055897787
3.4241672 1.6479384 -0.012023904
3.0218744 1.651262 0.090553559
2.90955 1.7293051 0.1202246
2.898062 1.8371005 0.12459388
2.8938327 1.9481931 0.12715375
2.878423 2.0563214 0.13252364
2.8883145 2.1750391 0.13158704
1.7725621 1.9307166 0.41273075
1.7481705 2.0159416 0.42008805
3.663528 1.4537029 -0.055190317
3.6570265 1.5724564 -0.051962782
3.48891 1.6484348 -0.0081259236
3.0866749 1.6514331 0.09439335
2.974395 1.7292662 0.12403213
2.9629347 1.8368868 0.12837631
2.9771314 1.9541982 0.12631302
2.9525166 2.0591242 0.1339736
2.9896293 2.188416 0.12622841
2.5911624 2.1426401 0.22715494
1.8198988 1.921543 0.42075655
1.733472 1.9782064 0.44353309
3.6990871 1.3959002 -0.05648667
3.6935923 1.5145425 -0.053543299
3.6483932 1.6236223 -0.040609628
3.3018653 1.647892 0.047992095
3.0123985 1.6768942 0.12212179
2.9926 1.7815068 0.12852888
3.0078549 1.8983656 0.12616429
3.0025318 2.0097435 0.12896936
2.9314017 2.0973737 0.14823379
2.8952274 2.1974869 0.1587528
1.7471639 1.9238939 0.44772816
1.6963304 1.9945236 0.46160415
3.7071486 1.4549996 -0.053315971
3.6911833 1.5712199 -0.047749911
3.5230944 1.6467959 -0.0039360342
3.1302745 1.6520097 0.096250802
2.9994009 1.7238902 0.13053596
3.0065098 1.837087 0.1301848
3.0206757 1.9542408 0.12808362
3.0234592 2.0690901 0.12885664
2.9423642 2.152854 0.15060739
2.8781974 2.2417176 0.16810828
1.9531672 1.9590111 0.40025267
1.7150102 1.9488497 0.46083194
3.7395577 1.5118335 -0.047492161
3.6944101 1.6203831 -0.034588531
3.3667147 1.649202 0.049346343
3.0772748 1.6778903 0.12352592
3.0389225 1.7764184 0.13457131
3.0634637 1.8959004 0.12984438
3.0673382 2.0102265 0.13032185
3.0599475 2.1218045 0.13363659
3.0504873 2.2337158 0.13748243
1.8033391 1.9191505 0.45152181
1.6994752 1.9648618 0.47860023
3.7566259 1.5051243 -0.040767934
3.7304144 1.6178832 -0.03265271
3.421555 1.6515205 0.046664171
3.0948839 1.6689662 0.13032693
3.075233 1.7727247 0.1366553
3.0814204 1.8856347 0.13649933
3.1038065 2.0058692 0.13229752
3.0691905 2.1067617 0.1424112
2.9695623 2.1816983 0.16880609
2.8331764 2.2385721 0.20436291
1.902896 1.9407089 0.43826166
1.6836454 1.9339137 0.49418923
3.8178947 1.449496 -0.046883892
3.7926681 1.562485 -0.039019853
3.643605 1.6420122 0.00010156728
3.2604194 1.6490071 0.098206654
3.1111252 1.714563 0.13721548
3.1184356 1.8269179 0.13675082
3.1236401 1.9400455 0.13683437
3.1267099 2.0539 0.13747314
2.8917229 2.0765533 0.19787188
3.0272226 2.2429583 0.16528858
1.8025068 1.9209239 0.47458956
3.820086 1.505381 -0.044034641
3.7844875 1.6155155 -0.033578306
3.4757586 1.648742 0.045921396
3.1585541 1.668578 0.12743451
3.1296575 1.7692031 0.13605896
3.1359038 1.8817872 0.13582289
3.1400404 1.9951276 0.13613895
3.1147249 2.0988114 0.14388229
2.8525159 2.1081219 0.21117799
2.9149997 2.2447214 0.19682717
1.7037178 1.9114058 0.50315624
3.8874946 1.5060756 -0.051107697
3.8519406 1.6160179 -0.040611342
3.5246744 1.6437128 0.044028562
3.2263384 1.6685083 0.12118255
3.2067564 1.7719218 0.12748708
3.1945839 1.8782506 0.13191815
3.1988101 1.9912584 0.13220446
3.200907 2.1049709 0.13305049
2.8303103 2.0709038 0.22811256
3.0101085 2.2549131 0.18403037
1.7372411 1.8930643 0.50757307
3.9101789 1.446726 -0.053410757
3.8850203 1.5590162 -0.04556625
3.8017261 1.6555767 -0.022912748
3.3719544 1.6492493 0.087913856
3.2134852 1.7114789 0.1295561
3.2116096 1.8202975 0.13135086
3.2260973 1.9359748 0.12900542
3.2292271 2.0493388 0.1295623
2.94011 2.0500896 0.20418498
2.9588778 2.166986 0.2007499
2.8143384 2.2155969 0.23863845
3.9201303 1.5035595 -0.052774131
3.8939946 1.6156213 -0.044692386
3.557451 1.6404443 0.042585921
3.2685409 1.6676359 0.11758339
3.2397037 1.7679147 0.12622745
3.2459857 1.8801681 0.12593314
3.2410073 1.9898719 0.12852059
3.2612841 2.1103396 0.12470641
2.8364789 2.0546215 0.23385322
2.7107992 2.2150929 0.26824322
1.7799293 1.890558 0.50502694
3.9944313 1.4504063 -0.060426619
3.9503703 1.5581188 -0.047778804
3.8764651 1.6570439 -0.027514197
3.437402 1.6479667 0.085948899
3.2789712 1.7100269 0.12765051
3.2771082 1.8186742 0.12939544
3.2916052 1.9341949 0.12698735
3.2947457 2.047395 0.12748753
3.0419583 2.06212 0.19304937
2.9164443 2.1202388 0.22619149
2.987273 2.2595177 0.20948596
2.655643 2.2207894 0.29482555
4.0347524 1.4477841 -0.057726886
4.0001574 1.5575311 -0.047568116
3.9262741 1.6562792 -0.027359445
3.4872923 1.6470122 0.086189389
3.3289056 1.708894 0.12787248
3.3362913 1.8204281 0.12718265
3.3324134 1.9295219 0.12938295
3.344763 2.0457721 0.12745875
3.3457975 2.1594994 0.12843698
2.8765748 2.0812249 0.24906453
3.0642657 2.2689869 0.20252688
2.7502794 2.2386208 0.28349105
4.0849953 1.4455551 -0.055675656
4.0410504 1.5525852 -0.043159857
3.9672716 1.6508151 -0.023004586
3.5471117 1.6464009 0.085877195
3.3794954 1.7051951 0.12994991
3.3777344 1.8133521 0.13154246
3.3739834 1.92194 0.13365301
3.3955889 2.0410788 0.1293001
3.3876534 2.1509364 0.13251045
2.9636796 2.0906258 0.2418022
3.079689 2.2478013 0.2133738
2.8548384 2.2566962 0.27176666
4.1337914 1.4404941 -0.054239962
4.0899811 1.5469993 -0.041718639
4.016366 1.644712 -0.021535547
3.5964534 1.639707 0.087646939
3.4383118 1.70085 0.12943462
3.4458871 1.81172 0.12863803
3.4330339 1.9169278 0.13309532
3.4456434 2.0323575 0.13103724
3.4197805 2.1346238 0.13884829
3.1671939 2.1438694 0.2046627
3.023217 2.1911185 0.2426244
2.9590552 2.2700996 0.26015514
4.1327786 1.4920706 -0.048862338
4.106905 1.6027613 -0.04095808
3.9016714 1.6629238 0.01315658
3.5103686 1.6601547 0.11509641
3.463227 1.7536472 0.12836543
3.4606011 1.8616025 0.13018596
3.4651303 1.9732851 0.13018048
3.4493735 2.0787578 0.135396
3.4226947 2.1806219 0.14342102
3.0446091 2.1343575 0.24147074
2.9456997 2.1976292 0.26791397
4.1661243 1.4362862 -0.056483444
4.1223674 1.5424433 -0.043955222
4.0675483 1.6449121 -0.028575294
3.6290667 1.6344637 0.085801557
3.4710245 1.6952728 0.12770037
3.4878895 1.8088591 0.12447982
3.4750619 1.9139 0.12892321
3.478574 2.0257766 0.12917027
3.416579 2.1135345 0.14627255
3.3532889 2.1996706 0.16369551
2.9850633 2.1525946 0.25935695
2.9304183 2.2340016 0.27447635
4.1982532 1.4880105 -0.054409422
4.1536689 1.5936137 -0.041661263
3.9766333 1.6612169 0.0053555896
3.576117 1.6557688 0.110094
3.5013063 1.7402076 0.13053872
3.5356724 1.86002 0.12277688
3.5127904 1.961804 0.12981066
3.5063002 2.0702472 0.13262139
3.4526725 2.160908 0.1475848
3.2721612 2.197252 0.19519295
2.9408181 2.160656 0.28152311
4.2198839 1.4262276 -0.056870535
4.1857677 1.5342809 -0.046827853
4.1405158 1.6389748 -0.033899028
3.7767901 1.6503063 0.061563443
3.5443835 1.6893429 0.12288494
3.5429673 1.7966528 0.12435114
3.5304127 1.9011995 0.12870896
3.5342062 2.0125833 0.12884793
3.46345 2.096343 0.14825228
3.5804172 2.2559059 0.11921114
3.1219943 2.1729968 0.23855543
2.916358 2.1869745 0.29261562
4.2364016 1.4802723 -0.055649821
4.2013288 1.5880152 -0.045389377
4.0430694 1.6608101 -0.0031481553
3.5961053 1.6417954 0.11394864
3.5492706 1.7344884 0.12715067
3.5561428 1.8447436 0.12643035
3.5517955 1.952468 0.12862785
3.5636327 2.067502 0.12665112
3.4468746 2.1328654 0.15793264
3.3475077 2.2022152 0.18468817
3.0249755 2.1700697 0.2690134
2.9259579 2.2295506 0.29558358
4.281322 1.4196798 -0.058717653
4.2472949 1.5274141 -0.048772763
4.2114959 1.6343346 -0.038369536
3.8664935 1.6511093 0.052486878
3.5969892 1.6789446 0.12359731
3.6049485 1.7887998 0.12252652
3.6016681 1.8962374 0.12438583
3.5964103 2.0040855 0.12676795
3.5348375 2.091094 0.14376606
3.5529253 2.2097669 0.14010994
3.2381954 2.1869075 0.22265038
2.9525273 2.165463 0.29756501
4.3008866 1.4762923 -0.060261913
4.2565079 1.5814307 -0.047645234
4.1170654 1.6591974 -0.010250106
3.6887748 1.6459706 0.10235523
3.6141391 1.7301517 0.12275019
3.6027026 1.8339895 0.12668626
3.6076932 1.9445096 0.1263586
3.6105809 2.0557563 0.12658775
3.4759977 2.1134529 0.16252798
3.5203748 2.2424734 0.15199424
3.1793938 2.2043765 0.24140756
2.9208629 2.1915808 0.30934596
4.3234315 1.4154341 -0.061995961
4.2895079 1.5230112 -0.052107114
4.2538123 1.6297745 -0.041758981
3.9368923 1.6546292 0.041999698
3.621033 1.6685643 0.12538449
3.6291983 1.7779161 0.12419728
3.6444714 1.891258 0.12117032
3.6484432 2.0023019 0.12110169
3.6231425 2.1034634 0.12866141
3.4791615 2.1562841 0.16708444
3.3350658 2.2045543 0.20549959
2.9870937 2.1559103 0.29681584
4.3684483 1.4716164 -0.064360186
4.3241849 1.5766089 -0.051777195
4.1941953 1.6568971 -0.016772471
3.8217683 1.6605649 0.081590243
3.6729622 1.7221721 0.12140788
3.6800768 1.8319218 0.12046794
3.6851261 1.9424385 0.12007926
3.6880796 2.0536838 0.12024868
3.6077142 2.1331134 0.14214998
3.7593265 2.3083668 0.10361002
3.2927043 2.2182431 0.22605872
2.954504 2.1693537 0.31495029
4.3853202 1.4082972 -0.062490396
4.3608637 1.5179086 -0.055107739
4.3345652 1.6270512 -0.047240984
4.0176549 1.6520556 0.036714163
3.738884 1.6775986 0.11059837
3.6822987 1.7663829 0.12629811
3.6977229 1.8792167 0.1231731
3.710964 1.9931353 0.12063369
3.7219877 2.108084 0.11868585
3.6408362 2.1871185 0.14079769
3.5140278 2.2446134 0.17479576
3.1919127 2.209938 0.25963748
4.4051752 1.4636495 -0.063349389
4.3703876 1.5707653 -0.053261288
4.2684746 1.6587799 -0.02557753
3.8773987 1.657421 0.077851675
3.7101138 1.7132049 0.12256071
3.7081597 1.8195038 0.12396086
3.7042449 1.9262408 0.12588131
3.7165301 2.0402658 0.1235771
3.7807367 2.1769454 0.10772516
3.7523277 2.2788501 0.11608464
3.3573318 2.2192812 0.22007713
3.0455518 2.1829898 0.3022514
4.4372635 1.5137315 -0.058889311
4.4110088 1.6228919 -0.051043618
4.1127729 1.6534724 0.028156472
3.8339353 1.6795219 0.10218403
3.7772994 1.7686718 0.11791202
3.7651505 1.8722475 0.12197778
3.7329307 1.9692034 0.13130644
3.7715161 2.0937274 0.12211575
3.9334261 2.2718017 0.080713972
3.5103998 2.2063351 0.19216716
3.3218644 2.2305114 0.24228126
2.931778 2.152756 0.34491676
4.4890022 1.4586784 -0.066906281
4.454361 1.5658127 -0.056847543
4.3619199 1.6565084 -0.031613391
3.970906 1.655609 0.071983568
3.7944548 1.7087394 0.11917508
3.8018301 1.8181481 0.11812045
3.7614338 1.9119647 0.12959497
3.7376919 2.0117378 0.13670678
3.8566251 2.1688266 0.10648082
3.8284101 2.2705879 0.11479042
3.3178587 2.1601512 0.24918459
3.2897272 2.2525084 0.25739911
4.4951949 1.5097587 -0.062152136
4.4596286 1.6164249 -0.051891334
4.1707835 1.6497163 0.024930989
3.8919768 1.6759481 0.099037059
3.8353853 1.7651471 0.11473867
3.8324571 1.8719243 0.11635122
3.7364266 1.9456052 0.14238282
3.7482417 2.0585766 0.14013605
3.9467492 2.2498062 0.089012735
3.4972413 2.1722801 0.20756215
3.2826505 2.1832993 0.26453429
3.1836414 2.2413259 0.29123485
4.5679336 1.4547689 -0.070588775
4.5239353 1.5595067 -0.05815807
4.4502473 1.6553036 -0.037915878
4.059186 1.6548678 0.065808959
3.8642159 1.7024394 0.11787467
3.8808589 1.8147755 0.11427472
3.8313503 1.9053577 0.12806614
3.7440917 1.9809891 0.15176383
3.8725557 2.1402709 0.11884011
3.979284 2.2972491 0.091665357
3.3524683 2.1375735 0.25679338
3.368861 2.249537 0.2532573
4.5858102 1.3941877 -0.070327878
4.5709496 1.5060159 -0.065642096
4.5354457 1.6127088 -0.05551523
4.2652674 1.6516017 0.016413677
3.9678681 1.6726985 0.095449612
3.9020996 1.7589302 0.11346874
3.8992741 1.8655392 0.11492609
3.7486625 1.9190711 0.15523784
3.7428219 2.0238698 0.15748289
4.0049362 2.2391725 0.089375399
3.6091416 2.1846907 0.19401322
3.2701597 2.140605 0.28365242
3.3654609 2.2884922 0.25934905
4.6140251 1.4502138 -0.070608661
4.5701127 1.5548121 -0.058290567
4.5058527 1.6530719 -0.040611848
4.0962467 1.6473325 0.068066359
3.9198966 1.7005408 0.11521088
3.927403 1.8097777 0.11391657
3.8962784 1.9067408 0.12279624
3.7453973 1.958616 0.16317467
3.7659523 2.0737929 0.15845324
4.0621285 2.3065519 0.08131469
3.4262116 2.1437957 0.24908401
3.318845 2.1990714 0.27794033
3.3075235 2.2976599 0.28157434
4.6205106 1.5021262 -0.065333299
4.5850706 1.6086676 -0.055275079
4.3335919 1.6528322 0.011750741
4.0083427 1.6656779 0.098168328
3.9611375 1.7576188 0.11126217
3.9583356 1.8642393 0.1126565
3.7803879 1.9077933 0.16016071
3.7294543 1.9945775 0.17421338
4.0370612 2.2268271 0.093968466
3.7576106 2.2217913 0.16812581
3.3204291 2.1355348 0.283665
3.3630235 2.2583306 0.27310753
4.6844821 1.4461534 -0.071679354
4.6405926 1.5505992 -0.059386097
4.5856915 1.6513 -0.044187941
4.2039471 1.6539536 0.057295769
3.9996994 1.6989397 0.11185917
4.0163684 1.8112617 0.10810415
4.0034442 1.9149252 0.1121623
3.752429 1.9296905 0.17897753
3.7463372 2.0328033 0.18121715
4.2045422 2.3311458 0.061205767
3.5325522 2.1540599 0.23877986
3.3366132 2.1691649 0.29096216
3.3520391 2.2793281 0.28752276
4.6943159 1.500028 -0.069788843
4.658905 1.6065766 -0.059733089
4.4074726 1.6508187 0.0074187475
4.091547 1.6666052 0.091559015
4.0351014 1.755717 0.10710803
4.0323262 1.8623278 0.10848381
3.8999949 1.9226366 0.14405115
3.7401235 1.9682248 0.18685745
3.796262 2.0966036 0.17268988
3.9032042 2.2505605 0.14515834
3.4211905 2.1457794 0.27277359
3.3580098 2.2192729 0.29002377
4.7587194 1.4443743 -0.075241454
4.7336054 1.5536606 -0.067920052
4.6319466 1.6417804 -0.040343944
4.2968369 1.6578081 0.048968889
4.064775 1.6944196 0.11096565
4.090703 1.8096609 0.10473281
4.0869398 1.9165747 0.10635587
3.790458 1.9144852 0.18528432
3.7485082 2.0026104 0.19696622
4.2430701 2.3145096 0.067093894
3.5624647 2.1330612 0.24726264
3.3845384 2.1555481 0.29477006
3.3738935 2.2525575 0.29816687
4.7729044 1.4981436 -0.073090814
4.7656512 1.6122061 -0.070500039
4.5514321 1.6677177 -0.013105867
4.1703792 1.6649175 0.088407964
4.1140084 1.7540469 0.10394415
4.1204767 1.8638327 0.10285494
4.0701885 1.9543644 0.11677755
3.7467921 1.9386525 0.20286195
3.7405107 2.0400794 0.20512308
4.0360827 2.2718832 0.12770025
3.4739342 2.1323617 0.27669802
3.3670378 2.1846709 0.305491
4.8138523 1.442991 -0.07673163
4.7981324 1.55471 -0.071920432
4.6871109 1.6404352 -0.041864742
4.3334351 1.6510524 0.052413736
4.1199708 1.6932254 0.10951629
4.1459169 1.8084623 0.103251
4.142168 1.9153866 0.10484785
3.9002059 1.9338764 0.16941285
3.7315404 1.9728692 0.21456769
3.8231642 2.1149206 0.19095315
3.7690611 2.1983826 0.20583566
3.4486532 2.1586163 0.29097879
3.4116669 2.2431161 0.30130914
4.8556695 1.4969207 -0.071365632
4.8484249 1.6109848 -0.068787858
4.6248798 1.6638651 -0.0089844596
4.2531033 1.6637976 0.089973599
4.196732 1.7529341 0.10548766
4.203208 1.8627216 0.10439021
4.207613 1.9732668 0.10384773
3.784204 1.9201257 0.21625842
3.751241 2.0097489 0.22554778
4.1992407 2.3051939 0.1079668
3.5034013 2.1074648 0.29208776
3.4497061 2.1836956 0.30681923
4.9000602 1.4441323 -0.076732039
4.8749266 1.5536014 -0.06944254
4.7732415 1.6419337 -0.04190398
4.419487 1.6527642 0.052266534
4.2059627 1.6951329 0.10930722
4.2134743 1.804368 0.10791196
4.2097902 1.9111266 0.10948346
4.0859985 1.973881 0.14276437
3.7360468 1.9432817 0.23570225
3.7474799 2.0503452 0.23325218
4.0594878 2.2910948 0.15157358
3.5165429 2.1536412 0.29526988
3.4533243 2.2253189 0.31248745
4.980103 1.4435074 -0.076397128
4.9550176 1.5529794 -0.069135867
4.8440318 1.6387343 -0.039156299
4.5275273 1.660447 0.045138232
4.2769074 1.6916698 0.11196508
4.3029108 1.8069038 0.10567212
4.2992191 1.9138253 0.10723271
4.2935495 2.021157 0.10931897
3.7622221 1.9213231 0.25011024
3.7471755 2.0161822 0.25462821
4.1933575 2.3139756 0.13755023
3.5705101 2.1409798 0.30230054
3.4374073 2.1784298 0.33791035
4.9976525 1.4978204 -0.0731989
4.9622684 1.6045688 -0.063234203
4.682878 1.6411766 0.011264792
4.3948841 1.6653664 0.087990403
4.301559 1.7426902 0.11321498
4.3265295 1.8583112 0.10717706
4.3127518 1.9620324 0.11138181
4.0253515 1.960935 0.18782353
3.7576773 1.9574084 0.25900382
3.7687559 2.0632653 0.25661108
4.0349488 2.2855663 0.1869612
3.5556741 2.1702359 0.31385157
5.0130801 1.438266 -0.07241711
4.9974213 1.5498163 -0.067705877
4.8864479 1.6354316 -0.037769061
4.5792546 1.6597784 0.04406203
4.328598 1.6910551 0.11088801
4.3453736 1.803194 0.10697728
4.3417006 1.9099531 0.10847768
4.3360572 2.0171244 0.11050314
3.8318326 1.927953 0.24419376
3.7359173 1.989494 0.27001145
3.9243364 2.1729708 0.220789
3.6396308 2.1486228 0.29640758
3.4800603 2.1737537 0.33898139
5.0368166 1.4926221 -0.069331452
5.0109091 1.6015317 -0.061908122
4.7409077 1.6406821 0.010117627
4.4436698 1.6620893 0.089305997
4.3596454 1.7422562 0.11205427
4.3663044 1.8515419 0.11081821
4.3526645 1.9549332 0.11495262
4.3734069 2.0723624 0.11000752
3.7528942 1.9314576 0.27443215
3.7376282 2.0247252 0.27895224
4.0754671 2.277216 0.19028732
3.5611491 2.145081 0.32650653
5.0749202 1.4323603 -0.06992951
5.0688009 1.5459833 -0.067807473
4.9672742 1.6340436 -0.040400419
4.6415629 1.6530071 0.046394419
4.409564 1.6898595 0.10831745
4.3988152 1.7927608 0.11162534
4.4045157 1.9022688 0.11058218
4.3990583 2.0091128 0.11249763
3.9762747 1.9519507 0.22481701
