# .PCD v0.7 - Point Cloud Data file format
VERSION 0.7
FIELDS x y z
SIZE 4 4 4
TYPE F F F
COUNT 1 1 1
WIDTH 90
HEIGHT 1
VIEWPOINT 0 0 0 1 0 0 0
POINTS 90
DATA ascii
-1.0154053 3.1081522 0.69905174
-1.0348872 3.100353 0.7137382
-0.93378985 3.2223148 0.69549364
-0.9721117 3.1355205 0.71564031
-0.8920266 2.586812 0.69836026
-1.0278382 2.9861579 0.73842216
-0.94144005 2.5840187 0.71394855
-0.99370086 2.6416986 0.72766298
-1.2172301 2.564708 0.78056639
-1.2001594 2.6730428 0.77835
-0.99737722 2.9413898 0.73388737
-1.0404205 3.0103929 0.74556559
-0.96158659 2.482969 0.72945213
-0.87005258 2.6449258 0.71007752
-1.040231 2.6128037 0.75089031
-1.1543633 2.6184015 0.77874476
-0.84268194 2.9722636 0.70924431
-0.9834612 2.9596415 0.74325532
-1.026868 3.0279865 0.75502741
-0.93816829 2.5261624 0.73067486
-0.87955546 2.6654937 0.71890134
-1.103388 2.5890419 0.77205992
-1.124886 2.6668878 0.77869898
-0.9295373 2.9287796 0.73581064
-0.98715872 2.9845474 0.75085127
-0.93000424 2.4665997 0.73407453
-0.94084656 2.5519257 0.73824513
-0.87560219 2.6976385 0.72495335
-1.1219027 2.6007171 0.78324509
-1.121061 2.6967881 0.78475976
-0.96543336 2.92836 0.75097507
-0.993568 3.0091228 0.75927716
-0.93890166 2.4694986 0.74894392
-0.85585654 2.6252508 0.73150206
-0.75386077 2.8029289 0.70983034
-0.93940783 2.7550805 0.75425792
-0.85111946 2.9300632 0.73588187
-0.95331472 2.9469085 0.76113653
-1.0038294 3.0072932 0.77456588
-0.93896538 2.5003066 0.7536875
-0.78719163 2.7108822 0.72042751
-0.8952449 2.7247558 0.74709219
-0.83587146 2.8738246 0.73529601
-0.9797464 2.9578826 0.77199709
-0.88577712 2.4700131 0.74729538
-0.89680713 2.5545199 0.75157726
-0.77039808 2.7487791 0.72423434
-0.83278406 2.7991002 0.74045968
-0.85064346 2.886126 0.74645835
-0.91740578 2.4597313 0.76611525
-0.81170422 2.6333115 0.74345618
-0.64942223 2.8605783 0.70792997
-0.72880936 2.8995242 0.72812247
-0.81590033 2.9300699 0.750045
-0.93976802 2.9256132 0.78033054
-0.9135319 2.4839532 0.77302909
-0.78602779 2.6765814 0.74533033
-0.6411854 2.8931384 0.71382076
-0.77359468 2.8868814 0.74619013
-0.83052415 2.9416523 0.76117593
-0.87241155 2.4545031 0.76633549
-0.92237926 2.5077205 0.77958429
-0.81180125 2.6890364 0.75577039
-0.65335441 2.9190474 0.72109634
-0.82296777 2.8793547 0.76201165
-0.85763401 2.9524736 0.77186799
-0.90816963 2.4485838 0.78289765
-0.841923 2.5917332 0.76926482
-0.81771129 2.7068603 0.76544321
-0.66096485 2.938005 0.73119074
-0.82996732 2.8965161 0.77196109
-0.88959563 2.472548 0.78794229
-0.82448775 2.6161432 0.77451044
-0.7481367 2.7753677 0.75859088
-0.83691329 2.9009488 0.78273451
-0.86466676 2.5134532 0.78922343
-0.83918381 2.6268015 0.78498375
-0.61348557 2.9133999 0.7345072
-0.77465302 2.8778477 0.77359885
-0.83130431 2.930124 0.78850716
-0.71329522 2.6405194 0.76459944
-0.85703665 2.6179285 0.79972446
-0.58831221 2.9442751 0.73920679
-0.77853858 2.8810453 0.78508776
-0.71982557 2.6637542 0.77090496
-0.7880944 2.7033007 0.78851163
-0.80149502 2.8900313 0.79518038
-0.8398025 2.5863523 0.8055554
-0.8017022 2.9120874 0.80194801
-0.85191804 2.5831673 0.81881166
