# .PCD v0.7 - Point Cloud Data file format
VERSION 0.7
FIELDS x y z
SIZE 4 4 4
TYPE F F F
COUNT 1 1 1
WIDTH 1444
HEIGHT 1
VIEWPOINT 0 0 0 1 0 0 0
POINTS 1444
DATA ascii
-1.1337759 -5.8872495 0.16531666
-1.0206062 -5.8038993 0.14085132
-0.83264917 -5.7956133 0.097989015
-0.67140508 -5.7547278 0.061796449
-1.3916886 -8.2718868 0.20031972
-1.3953512 -7.9537959 0.20658438
-1.3973069 -7.6549816 0.21213253
-1.3854144 -7.3913813 0.21391439
-1.4039026 -7.0975571 0.22315519
-1.3896068 -6.8623862 0.22390507
-1.3757194 -6.636785 0.22458707
-1.4110048 -6.3587184 0.23739895
-1.3850387 -6.1678495 0.23472813
-1.3383529 -6.0080709 0.22679241
-1.2170537 -5.9372129 0.20028874
-1.1232605 -5.8347588 0.18060894
-0.96345758 -5.8022685 0.14465067
-0.72021925 -5.8501363 0.088253222
-0.6072247 -5.7598901 0.063978396
-1.374725 -8.3748236 0.20907927
-1.3800111 -8.0476484 0.21584949
-1.3840488 -7.7399359 0.22200406
-1.3748121 -7.4677362 0.2245248
-1.3789505 -7.189559 0.23020346
-1.332787 -6.9938788 0.22299199
-1.339361 -6.735651 0.22888811
-1.3957605 -6.425386 0.2470507
-1.3802613 -6.2190604 0.24702483
-1.3511685 -6.0368776 0.24348536
-1.2554473 -5.9375057 0.22332112
-1.1483397 -5.8512235 0.20033409
-1.0156679 -5.7917533 0.17105211
-0.71211946 -5.9064655 0.099782258
-0.62613529 -5.7892113 0.082145318
-0.47149366 -5.7390618 0.047686998
-1.3880613 -8.478137 0.21603613
-1.3948375 -8.1418219 0.22328222
-1.3901551 -7.8418541 0.22729658
-1.3995945 -7.5360522 0.23463582
-1.3897992 -7.2738318 0.23684414
-1.3873713 -7.0136518 0.24070141
-1.3804609 -6.7715726 0.24322765
-1.3862478 -6.5236235 0.24875642
-1.41123 -6.262569 0.25889036
-1.380654 -6.080636 0.25499359
-1.2969651 -5.9670939 0.23780708
-1.1959684 -5.8745847 0.21630993
-1.0765436 -5.8020926 0.19026373
-0.78139096 -5.9129124 0.12096849
-0.66062069 -5.8322577 0.094752327
-0.52681041 -5.7628751 0.065365955
-1.3954368 -8.2533836 0.22850606
-1.4028504 -7.9275317 0.23572508
-1.414392 -7.6128669 0.24369805
-1.3962629 -7.3585515 0.24387206
-1.4079831 -7.0735893 0.25138545
-1.3987368 -6.8313708 0.25338638
-1.3723514 -6.6226206 0.25090644
-1.4124537 -6.3372393 0.26491225
-1.386009 -6.1474762 0.26209962
-1.3390744 -5.9889827 0.25407591
-1.237655 -5.8977098 0.23246607
-1.1245762 -5.8192973 0.2079761
-0.93853915 -5.8179002 0.16551332
-0.62071753 -5.9461718 0.090747379
-0.5968051 -5.7655096 0.088358454
-1.3802412 -8.3556852 0.23257194
-1.3839647 -8.0291176 0.238977
-1.3919225 -7.7136903 0.24616142
-1.3871512 -7.434093 0.24982615
-1.3903546 -7.1567807 0.25527826
-1.3381331 -6.9704514 0.24649899
-1.3437605 -6.713007 0.25216958
-1.4048144 -6.3953085 0.27155307
-1.3950375 -6.1823673 0.27294254
-1.3469362 -6.0243859 0.26462781
-1.251328 -5.9265976 0.24441448
-1.137874 -5.8493791 0.21976669
-1.0054768 -5.7917032 0.19045046
-0.66959524 -5.9453301 0.11096092
-0.52746719 -5.8850522 0.079460502
-0.45602027 -5.7525582 0.06536641
-1.3807797 -8.4589224 0.23710646
-1.3910722 -8.1147184 0.24533634
-1.4010072 -7.79036 0.25314611
-1.3879906 -7.5187278 0.25479516
-1.3937905 -7.2326913 0.26100406
-1.3679694 -7.0059361 0.25895426
-1.3716487 -6.7485533 0.26419082
-1.406399 -6.4619713 0.27704886
-1.3884112 -6.2565789 0.27643076
-1.3634406 -6.0679078 0.27392811
-1.2861575 -5.948288 0.25825387
-1.1790068 -5.8649755 0.23511074
-1.0599322 -5.7942882 0.20901908
-0.75985587 -5.9155645 0.13815084
-0.61179364 -5.8649502 0.10506866
-0.49864802 -5.7760615 0.080645941
-1.392785 -8.3121023 0.25215504
-1.395376 -7.9864106 0.25845718
-1.3917341 -7.6886377 0.26283702
-1.3804815 -7.4181538 0.26498899
-1.3935797 -7.1251116 0.27313825
-1.3297918 -6.9563222 0.26142183
-1.340174 -6.6915746 0.26845196
-1.3938119 -6.3820925 0.28621945
-1.3833033 -6.1699982 0.28751996
-1.3411427 -6.005537 0.28070575
-1.2458628 -5.9094539 0.26047108
-1.1393843 -5.8266768 0.23742631
-0.99453032 -5.7858033 0.20481536
-0.67438877 -5.9286866 0.12865297
-0.47811568 -5.9273124 0.083517209
-0.41974524 -5.7816377 0.07264258
-1.3935814 -8.4318371 0.25446606
-1.4021809 -8.0882597 0.26250088
-1.4053748 -7.7729993 0.26879331
-1.401774 -7.4854546 0.27303404
-1.3954957 -7.2167401 0.27632734
-1.3462704 -7.0234761 0.26840276
-1.3770053 -6.72616 0.280727
-1.4104426 -6.4401283 0.29347667
-1.4038618 -6.2200847 0.29584834
-1.3601422 -6.0558786 0.28868258
-1.2890573 -5.9300838 0.27453682
-1.1758063 -5.8560739 0.24976696
-1.0570171 -5.7872 0.22363126
-0.79887027 -5.8682804 0.16275311
-0.62478268 -5.8490338 0.12300337
-0.39436236 -5.8814273 0.069367684
-0.31597051 -5.7557664 0.053534169
-1.3948051 -8.543375 0.25946936
-1.4093773 -8.1818733 0.26919118
-1.403994 -7.874517 0.27336112
-1.4075818 -7.5695763 0.27955675
-1.4092312 -7.2838507 0.28496706
-1.4080064 -7.0169802 0.28938568
-1.3802289 -6.8009338 0.28678694
-1.4107826 -6.5141954 0.29888332
-1.4138126 -6.2780147 0.30374315
-1.3868077 -6.0906558 0.30081967
-1.3211037 -5.9579372 0.28801003
-1.2139268 -5.8776059 0.26471591
-1.1015114 -5.8026929 0.24011672
-0.9107691 -5.8133554 0.19595152
-0.61707902 -5.9268641 0.12623413
-0.42768508 -5.9183536 0.082715347
-0.34855211 -5.7936354 0.066667072
-1.3924652 -8.6290989 0.26712644
-1.3885292 -8.2928858 0.27219063
-1.3894958 -7.9678092 0.27819002
-1.4000356 -7.6454148 0.28635514
-1.3880188 -7.3759832 0.28836992
-1.3946607 -7.0920544 0.29495168
-1.3363947 -6.9165626 0.28461796
-1.345996 -6.6527605 0.29152802
-1.380777 -6.3676863 0.30463096
-1.3755121 -6.1486101 0.30731446
-1.3330808 -5.9853816 0.30042294
-1.2191999 -5.913826 0.27540046
-1.1255579 -5.8175468 0.25549251
-0.98783618 -5.771348 0.22451244
-0.75003356 -5.8308296 0.16854034
-0.49506247 -5.897758 0.10846844
-0.31230581 -5.8801446 0.066578068
-0.24103986 -5.7475839 0.052481446
-1.3851866 -8.4307737 0.27288136
-1.396715 -8.0789948 0.2818329
-1.4033562 -7.7557812 0.28914484
-1.398442 -7.468924 0.29313836
-1.4072309 -7.1760712 0.30040592
-1.3467818 -7.0006094 0.28957671
-1.3762188 -6.7038422 0.30168679
-1.3967805 -6.4343357 0.31125984
-1.4011819 -6.1992283 0.31648508
-1.3633424 -6.0284972 0.31079721
-1.2675647 -5.9349775 0.29034162
-1.1671556 -5.8474269 0.26871052
-1.0552756 -5.7729626 0.24419202
-0.85845238 -5.7913861 0.19838417
-0.65273833 -5.8116703 0.15048799
-0.37615964 -5.8970571 0.085051864
-0.29740563 -5.7727027 0.069080994
-1.4129577 -8.5080376 0.28365621
-1.4110204 -8.1730442 0.28923965
-1.4190133 -7.8407035 0.29707274
-1.4108706 -7.5534348 0.3003656
-1.4057046 -7.2767062 0.30415922
-1.4194597 -6.9857063 0.31258339
-1.3798186 -6.7870903 0.30700874
-1.4146061 -6.4927616 0.32035458
-1.4166684 -6.2574039 0.32507852
-1.3770468 -6.0868044 0.31900594
-1.3048095 -5.9630489 0.30455455
-1.203867 -5.8766217 0.28279802
-1.0915574 -5.8033919 0.25817671
-0.94095099 -5.7721872 0.22394928
-0.71647108 -5.8171635 0.17127927
-0.50250536 -5.8415394 0.12140772
-0.26533365 -5.8810129 0.065901324
-0.15883546 -5.7828918 0.043069825
-1.4038341 -8.6219854 0.29299453
-1.3880872 -8.3036566 0.2950348
-1.4066055 -7.9446316 0.30572096
-1.3949087 -7.6568065 0.30815485
-1.4020872 -7.3542995 0.31521523
-1.4018866 -7.0793796 0.32007968
-1.3374566 -6.9133306 0.30815834
-1.3853151 -6.5933857 0.32493544
-1.407635 -6.3253202 0.33488601
-1.3720649 -6.1468883 0.32985854
-1.3289492 -5.9847174 0.32279634
-1.2276506 -5.8995743 0.3009142
-1.1150999 -5.8277411 0.27619219
-0.99055457 -5.768558 0.24847305
-0.82686937 -5.750598 0.2109701
-0.60839748 -5.7861023 0.15984817
-0.3460134 -5.8579488 0.097926721
-0.22603416 -5.7760963 0.071663328
-1.3924185 -8.4075785 0.30568168
-1.3970133 -8.065012 0.31276551
-1.4118195 -7.7252922 0.32216015
-1.3952063 -7.4561996 0.32305327
-1.4076582 -7.1555824 0.33121836
-1.3412704 -6.9897361 0.31879434
-1.3689721 -6.6933899 0.33040988
-1.3822803 -6.4324455 0.3380785
-1.3912461 -6.1899805 0.34441778
-1.352791 -6.0203714 0.33851781
-1.2632604 -5.9208302 0.31958237
-1.1442491 -5.8579793 0.29318663
-1.032347 -5.7851834 0.26860917
-0.88871276 -5.7470589 0.23608768
-0.72485429 -5.7273302 0.19856858
-0.41746876 -5.8534007 0.12531152
-0.23557359 -5.8367991 0.083567277
-0.066619977 -5.8016591 0.045139186
-1.3981541 -8.6230383 0.32929143
-1.4088181 -8.2530127 0.3380121
-1.4061565 -7.9292541 0.34287438
-1.3979596 -7.6336322 0.34598416
-1.3932185 -7.34867 0.34971243
-1.4074264 -7.0492711 0.35806024
-1.3263904 -6.9094763 0.34172004
-1.3890699 -6.5652056 0.36201999
-1.4045018 -6.3058791 0.36997473
-1.3684498 -6.1286359 0.36465523
-1.3189604 -5.9755721 0.35582554
-1.2240274 -5.8844519 0.33545372
-1.1056361 -5.8222256 0.3091777
-0.96867985 -5.7800484 0.27827406
-0.82514668 -5.7421122 0.24578053
-0.65472275 -5.7298465 0.20664424
-0.34735358 -5.8560734 0.13354383
-0.20691229 -5.7974405 0.10211204
-1.4191637 -8.4835262 0.35200727
-1.4179077 -8.1409798 0.35745597
-1.4171104 -7.8183508 0.3626793
-1.4057273 -7.532423 0.364842
-1.4026763 -7.2485728 0.36889666
-1.4132187 -6.9586539 0.37619227
-1.3993953 -6.7209268 0.37698686
-1.3978846 -6.4767518 0.38073361
-1.4032853 -6.234652 0.3860437
-1.368434 -6.0583501 0.38095632
-1.2960458 -5.937604 0.3662689
-1.1832932 -5.8702345 0.34136793
-1.0777233 -5.7930241 0.31829008
-0.93485922 -5.7588267 0.28587848
-0.78515816 -5.7286515 0.25182015
-0.60164654 -5.7311907 0.20940691
-0.2535589 -5.9003425 0.12619402
-0.16766185 -5.784821 0.10830086
-1.3992529 -8.6034307 0.35475826
-1.4030484 -8.2426481 0.36174795
-1.398445 -7.919425 0.36615661
-1.3885392 -7.6244078 0.36886355
-1.3821752 -7.3400397 0.37221032
-1.4051409 -7.0242791 0.38287559
-1.3348308 -6.8693948 0.36923128
-1.3792666 -6.5501413 0.38492629
-1.3990746 -6.2832851 0.39403477
-1.3567548 -6.1151938 0.38709328
-1.3009235 -5.9712105 0.37661722
-1.2060018 -5.8816185 0.35617363
-1.1003077 -5.8057942 0.33300245
-0.95768607 -5.7733288 0.30055037
-0.81473106 -5.7375174 0.26807833
-0.65170336 -5.7203097 0.23064491
-0.39356261 -5.7998672 0.16955885
-0.15855862 -5.8435183 0.1144354
-1.4064223 -8.8700666 0.3573114
-1.418903 -8.4722099 0.36712387
-1.4201771 -8.1214285 0.37352186
-1.4127429 -7.8080711 0.37724772
-1.4096322 -7.5056243 0.38179025
-1.4154482 -7.2055511 0.38836378
-1.4090801 -6.9416642 0.39148188
-1.399531 -6.6964426 0.39353806
-1.3969688 -6.4530692 0.39718419
-1.3956416 -6.2198281 0.40094241
-1.3659927 -6.0365734 0.39725968
-1.2817041 -5.9331174 0.37951165
-1.1691571 -5.8674164 0.35454801
-1.0699092 -5.7841482 0.33297548
-0.92130643 -5.7595921 0.29892904
-0.76563269 -5.7389097 0.26317418
-0.60919309 -5.7143798 0.22730681
-0.27048513 -5.8805437 0.1458237
-0.16424212 -5.7882686 0.12278265
-1.4067329 -8.5926638 0.36719075
-1.4173634 -8.2147465 0.3763209
-1.406289 -7.90096 0.37926498
-1.3996446 -7.5980215 0.38305184
-1.3918761 -7.3144417 0.38623893
-1.4079498 -7.0076571 0.39538836
-1.3319259 -6.862432 0.38023528
-1.3852378 -6.5268593 0.39857116
-1.3925209 -6.2769299 0.40467513
-1.3609983 -6.0937386 0.40056136
-1.2990787 -5.9590673 0.3885107
-1.1922735 -5.8867726 0.36490169
-1.0865668 -5.8124809 0.34158456
-0.94433528 -5.7818956 0.30898422
-0.80813372 -5.7404766 0.2779811
-0.65881974 -5.7106919 0.24371374
-0.44242531 -5.7499785 0.19259688
-0.09428665 -5.9189954 0.1084912
0.01953147 -5.8313513 0.08351282
-1.4108518 -8.7125015 0.37132013
-1.4168917 -8.3337612 0.37939265
-1.4157953 -7.9930582 0.38513073
-1.400865 -7.6983361 0.38683107
-1.3995848 -7.3970313 0.39183488
-1.4072114 -7.098134 0.39887604
-1.3028636 -6.9950352 0.37632573
-1.3895001 -6.5997972 0.40351546
-1.4051709 -6.3329949 0.41187358
-1.3775084 -6.1417847 0.40878248
-1.3317776 -5.9835696 0.40089014
-1.236576 -5.8966732 0.38019037
-1.1308305 -5.823772 0.35678148
-0.98272055 -5.802598 0.32256728
-0.85297102 -5.7551904 0.29310149
-0.71692491 -5.7123332 0.26208612
-0.54128802 -5.7103209 0.22110395
-0.068534568 -6.0209098 0.10522468
-0.11053663 -5.7704468 0.11944658
-1.4166764 -8.8494272 0.37529421
-1.4222376 -8.460886 0.38341585
-1.4213078 -8.1105833 0.38934934
-1.416733 -7.7890892 0.39392677
-1.416871 -7.478651 0.39941204
-1.4111267 -7.1963162 0.4030306
-1.4084764 -6.9245954 0.40718746
-1.3818004 -6.7051806 0.4048112
-1.4159043 -6.404448 0.4180676
-1.3916413 -6.2049303 0.41590708
-1.3613623 -6.0226674 0.4120374
-1.2712942 -5.928679 0.39264393
-1.1770831 -5.8411584 0.37217033
-1.0414853 -5.8061838 0.34109807
-0.90570599 -5.7681184 0.31003812
-0.76981056 -5.7269545 0.27900523
-0.62079692 -5.6974316 0.2447018
-0.39141026 -5.7515349 0.19014114
-0.15188052 -5.8062401 0.13319871
-1.3788767 -9.0138721 0.37877303
-1.4008187 -8.5795908 0.39145955
-1.4090948 -8.2020483 0.39996561
-1.4008836 -7.8801041 0.40365189
-1.3926786 -7.5778155 0.40699592
-1.3884668 -7.2863283 0.41108897
-1.4132775 -6.963131 0.42251873
-1.29023 -6.8951344 0.39493805
-1.3731437 -6.5093322 0.42104521
-1.3848022 -6.2518191 0.42826089
-1.3528451 -6.0697222 0.42396474
-1.2850994 -5.9444423 0.41031256
-1.1846313 -5.8659759 0.38819268
-1.0611842 -5.8168797 0.36019152
-0.91942757 -5.7881532 0.32755095
-0.78359962 -5.7485533 0.29648811
-0.65415776 -5.6983829 0.26710117
-0.46559268 -5.7112861 0.22279218
-0.046648886 -5.9642525 0.12043109
0.033534888 -5.8423362 0.10381158
-1.4126313 -8.8249531 0.40695807
-1.4159706 -8.4369011 0.41443959
-1.4176502 -8.0783205 0.42102447
-1.4162211 -7.748776 0.4263835
-1.4006244 -7.4651179 0.42764229
-1.4181907 -7.1404457 0.43735543
-1.3893033 -6.9122119 0.43455696
-1.3091273 -6.7775798 0.41816267
-1.4156294 -6.3599133 0.45025602
-1.3800267 -6.1780076 0.44509012
-1.3323077 -6.0211349 0.43666148
-1.2479535 -5.9204721 0.41870758
-1.1241008 -5.8739038 0.39059389
-1.0005172 -5.824688 0.36258781
-0.8772518 -5.7728372 0.33470243
-0.74167806 -5.7334528 0.30372629
-0.5995459 -5.6984081 0.27114388
-0.40437353 -5.7186384 0.22521736
-0.13309856 -5.8128662 0.16023737
-1.3768296 -8.988575 0.41222915
-1.3961781 -8.5546322 0.42420158
-1.4023266 -8.1775713 0.43212095
-1.39245 -7.8562679 0.43534651
-1.3969551 -7.5285063 0.44203719
-1.3966483 -7.2292943 0.44711676
-1.4052278 -6.9324775 0.45422876
-1.2413063 -6.9338827 0.41598457
-1.3954905 -6.4304204 0.46060798
-1.3741647 -6.22369 0.45919892
-1.3305707 -6.0589852 0.45187479
-1.2453548 -5.9590864 0.43372896
-1.1211009 -5.9136243 0.40554315
-1.0151339 -5.8419986 0.3820715
-0.89796764 -5.7838378 0.35575533
-0.76885015 -5.7385015 0.32643345
-0.63346112 -5.6977925 0.29556876
-0.45881516 -5.6983037 0.25483817
-0.0030146509 -5.9995875 0.14336012
0.08474344 -5.8857784 0.12486029
-1.4145466 -8.7990179 0.43895391
-1.4199221 -8.4025116 0.44702336
-1.424183 -8.0356684 0.45432529
-1.4212751 -7.7068691 0.45930597
-1.4093152 -7.4153914 0.46153903
-1.4157858 -7.108686 0.46832693
-1.3911316 -6.872889 0.46664855
-1.2799795 -6.7904725 0.44219029
-1.4046377 -6.3387356 0.4790003
-1.3684351 -6.157836 0.47369298
-1.297894 -6.0346971 0.45939362
-1.1728435 -5.9914665 0.43102539
-1.0715169 -5.9137945 0.4087742
-0.9835484 -5.8186383 0.3899346
-0.84828812 -5.7840066 0.35903978
-0.73167956 -5.7234221 0.33293548
-0.57728231 -5.7054543 0.29729533
-0.40245834 -5.7058439 0.25658098
-0.13956848 -5.7961855 0.19380641
-1.4061087 -8.9161034 0.44786513
-1.4067869 -8.5188789 0.45482016
-1.4066054 -8.1512985 0.46106914
-1.4041089 -7.8129663 0.466281
-1.4025197 -7.4946651 0.47136468
-1.3960468 -7.2048187 0.47482479
-1.4180384 -6.8827949 0.4854643
-1.2402101 -6.9120235 0.44356412
-1.4121817 -6.3742638 0.49282485
-1.3636795 -6.2102866 0.48434797
-1.2918288 -6.0875793 0.46972886
-1.1888494 -6.012835 0.44703978
-1.0464599 -5.9922514 0.41424504
-0.99866247 -5.8420992 0.4056963
-0.86947078 -5.8010807 0.37632501
-0.73411393 -5.7648864 0.3454349
-0.60494906 -5.7180376 0.3161687
-0.45653659 -5.6906471 0.28208628
-0.20202564 -5.7769179 0.22134607
0.14429624 -5.9494438 0.13774443
-1.4098947 -8.6358328 0.46204653
-1.4181458 -8.2406893 0.47071642
-1.4074755 -7.9107804 0.47386661
-1.4067794 -7.5831213 0.47930393
-1.4064949 -7.275393 0.48449737
-1.415432 -6.9700675 0.49179748
-1.277335 -6.9320459 0.46028906
-1.398438 -6.4689445 0.49641186
-1.3848765 -6.2462721 0.49706385
-1.3339061 -6.0911908 0.48784977
-1.2196966 -6.034059 0.46223295
-1.0544866 -6.0471478 0.42353669
-1.0287201 -5.8654175 0.42064887
-0.91755617 -5.8022437 0.39584479
-0.76416653 -5.7909846 0.36031872
-0.64747965 -5.7302642 0.33418632
-0.49299866 -5.7121515 0.29852387
-0.31809095 -5.7123804 0.25778788
-0.09506467 -5.7589335 0.20505361
-1.4140134 -8.7602606 0.46774063
-1.4259053 -8.3463182 0.47762868
-1.4244027 -7.98913 0.48342618
-1.4111986 -7.6787515 0.48569727
-1.411994 -7.3616915 0.49134156
-1.412692 -7.0644507 0.49662492
-1.3874918 -6.8296494 0.49480802
-1.3434807 -6.6386256 0.48786175
-1.3993641 -6.2970376 0.50675362
-1.3468148 -6.1421981 0.49720019
-1.2761492 -6.020247 0.48286608
-1.1175271 -6.027266 0.44584408
-1.0388602 -5.9184523 0.42942134
-0.96258813 -5.8086829 0.41357407
-0.80352575 -5.8069582 0.37659994
-0.68671441 -5.7475743 0.35044876
-0.55148572 -5.708456 0.31966549
-0.39026773 -5.6959987 0.28237274
-0.13560146 -5.7820358 0.22163609
-1.3965876 -8.8851252 0.47407767
-1.3952848 -8.4884062 0.48059672
-1.3976443 -8.1123981 0.48761341
-1.3937626 -7.7747154 0.49251792
-1.4047393 -7.430685 0.50099194
-1.4024394 -7.1331038 0.5055778
-1.4090359 -6.83781 0.5121966
-1.3286339 -6.7071614 0.4957287
-1.3915471 -6.3478413 0.51656121
-1.3321524 -6.2016106 0.50525296
-1.2546296 -6.0882187 0.48916081
-1.134847 -6.0391603 0.46212038
-0.99824059 -6.0118012 0.4307915
-0.9790253 -5.8225317 0.42957944
-0.80836117 -5.8381681 0.38958079
-0.69123948 -5.7798986 0.36331969
-0.57472783 -5.7192106 0.3372412
-0.41397625 -5.7085996 0.3000001
-0.19982137 -5.7530041 0.24937867
0.18395308 -5.9730167 0.15624039
-1.416562 -8.7004766 0.49369785
-1.4227041 -8.2961969 0.50207901
-1.415572 -7.9486642 0.50638831
-1.4056894 -7.6301484 0.50955868
-1.4100412 -7.3050299 0.51616549
-1.4099834 -7.0086336 0.52124929
-1.408998 -6.7317991 0.52578068
-1.4061327 -6.4742332 0.52954382
-1.3796749 -6.2693329 0.52689624
-1.3163145 -6.1322684 0.51447064
-1.2454692 -6.0113769 0.50001913
-1.0820522 -6.0283203 0.46159548
-1.0434275 -5.8642535 0.45540714
-0.93841481 -5.7959471 0.43207791
-0.73804599 -5.8509674 0.38437334
-0.6268571 -5.7847018 0.35956803
-0.51654404 -5.7162304 0.33500469
-0.36223298 -5.6980419 0.29930571
-0.12857911 -5.7645831 0.24363212
-1.3998932 -8.8247232 0.49765605
-1.4133514 -8.3924732 0.50817883
-1.398036 -8.0534582 0.51037413
-1.4018128 -7.6987567 0.51730865
-1.3983268 -7.3821096 0.52189523
-1.4044223 -7.0677924 0.5286839
-1.4055204 -6.7820525 0.53381759
-1.3803169 -6.5586267 0.53172851
-1.3768913 -6.3109932 0.53515273
-1.2911974 -6.2079453 0.51684386
-1.2402682 -6.0540071 0.50754488
-1.0990618 -6.0394955 0.47472388
-1.0310652 -5.9165316 0.46089709
-0.94851387 -5.8169694 0.44326377
-0.7250669 -5.9054813 0.38942087
-0.64353502 -5.8010907 0.37210655
-0.52061504 -5.7492375 0.34420109
-0.38536391 -5.7098455 0.3131935
-0.17873181 -5.7491469 0.26412445
0.21567796 -5.9876342 0.16767077
-1.4113843 -8.9494343 0.50169766
-1.4037064 -8.552762 0.50659573
-1.4166281 -8.1406384 0.51659578
-1.4079348 -7.8033476 0.52025181
-1.4050691 -7.4772172 0.52508873
-1.3982853 -7.1798615 0.52852052
-1.4146972 -6.8585272 0.53780705
-1.4016248 -6.6090288 0.53895092
-1.3908082 -6.3697758 0.54045326
-1.3402089 -6.2081475 0.53129441
-1.229899 -6.1467996 0.50640678
-1.0821593 -6.1410913 0.47178072
-1.0345197 -5.9853568 0.46321556
-0.98515391 -5.8378587 0.45410529
-0.77456909 -5.9126873 0.40334603
-0.64454186 -5.8720708 0.37346953
-0.55765212 -5.7745509 0.35469377
-0.43495953 -5.7213635 0.32675332
-0.23565941 -5.7554431 0.279329
-0.01413676 -5.8062115 0.22639826
-1.4069486 -8.6681633 0.51247466
-1.4272003 -8.2280836 0.52465314
-1.4189444 -7.8814311 0.52854979
-1.4081615 -7.5638556 0.53136331
-1.4070065 -7.2484083 0.53640836
-1.4060361 -6.9528461 0.54116368
-1.4187727 -6.6508937 0.54925364
-1.405766 -6.4116464 0.55022895
-1.3638833 -6.2334199 0.5433777
-1.2531885 -6.1731458 0.51833826
-1.2190864 -5.9947062 0.51332271
-1.0123225 -6.0791821 0.46322414
-1.006209 -5.8666849 0.46537253
-0.86628133 -5.8476162 0.43275356
-0.67211181 -5.8962445 0.38622212
-0.55419225 -5.8385911 0.35943672
-0.46798855 -5.74018 0.340803
-0.32654241 -5.7084308 0.30803883
-0.094025113 -5.77742 0.25212976
-1.4065747 -8.7738647 0.51941425
-1.4139012 -8.3512325 0.52817035
-1.4053572 -7.9948921 0.53207713
-1.3991512 -7.6588235 0.53620142
-1.4032048 -7.3250933 0.54271197
-1.3897938 -7.0467062 0.54417837
-1.4132249 -6.7179365 0.555188
-1.3976244 -6.4784527 0.55549341
-1.3587167 -6.2917109 0.5494163
-1.2678744 -6.1983905 0.52951646
-1.2377583 -6.0120101 0.52551103
-1.0648811 -6.0490532 0.48406145
-1.0243969 -5.8862615 0.47721463
-0.91337776 -5.8284354 0.45195791
-0.69114345 -5.9191918 0.39794949
-0.53687733 -5.9097538 0.36166662
-0.48011735 -5.7730794 0.35054061
-0.35113803 -5.7274742 0.32083368
-0.15170561 -5.7614036 0.27315637
0.24008909 -6.0037599 0.1765537
-1.4030641 -8.9171705 0.52464849
-1.4128307 -8.4753742 0.53426719
-1.4038494 -8.1093187 0.53820056
-1.3976996 -7.7636414 0.5424664
-1.3977615 -7.429245 0.54801553
-1.4034989 -7.1061764 0.55471981
-1.4143815 -6.7944455 0.56245399
-1.4057249 -6.5373511 0.56466538
-1.3797818 -6.3249664 0.56204915
-1.3087012 -6.1985297 0.54733789
-1.1670575 -6.1889372 0.51401007
-1.0786741 -6.0932164 0.49469879
-1.0422734 -5.9224973 0.48892149
-0.95357537 -5.8332934 0.46942848
-0.73273122 -5.9264498 0.41566965
-0.58494914 -5.9109354 0.38098493
-0.46683711 -5.8530369 0.3540166
-0.38044396 -5.7543883 0.33522287
-0.21339737 -5.7525878 0.29575431
0.045742106 -5.8505812 0.23285495
-1.4161649 -9.050889 0.53096682
-1.416641 -8.6174221 0.53817844
-1.4346915 -8.1777992 0.54965407
-1.4208525 -7.8409042 0.55189782
-1.4173262 -7.5061331 0.55654895
-1.4151174 -7.1914883 0.56118506
-1.4178536 -6.8879609 0.56681019
-1.4202549 -6.6042361 0.57203156
-1.3919281 -6.3917341 0.56881166
-1.3494951 -6.2144122 0.56167531
-1.228844 -6.1725259 0.53379995
-1.1351722 -6.0865026 0.51303589
-1.0596883 -5.9742908 0.49700668
-0.99242967 -5.8531098 0.48307371
-0.7956847 -5.9162788 0.43545714
-0.63681102 -5.9185767 0.39780504
-0.45849407 -5.9404378 0.35522607
-0.43205878 -5.7647319 0.35185212
-0.27181864 -5.7572522 0.31403485
-0.071929872 -5.790709 0.26615602
-1.3973716 -8.7513905 0.54687953
-1.4099617 -8.3108377 0.55695879
-1.4119308 -7.9279561 0.56359565
-1.3961731 -7.6107473 0.56497639
-1.3900731 -7.2955003 0.56861383
-1.3935553 -6.9824729 0.57448661
-1.4112203 -6.6631584 0.58382219
-1.3951415 -6.4246745 0.58386064
-1.3611619 -6.2305908 0.5789457
-1.240477 -6.1899858 0.55101556
-1.2095612 -6.0043483 0.5466916
-1.043209 -6.0351377 0.50679296
-1.0078021 -5.865109 0.5011524
-0.83479506 -5.8980088 0.4596442
-0.65364444 -5.9344378 0.41614717
-0.49382761 -5.9345908 0.37829083
-0.4240672 -5.8141918 0.36371014
-0.2885569 -5.7774138 0.33220702
-0.12749687 -5.7677398 0.29421291
0.2355551 -5.9844732 0.20471285
-1.4099675 -9.0188274 0.56169164
-1.4153733 -8.5674105 0.57014692
-1.4153997 -8.1647959 0.57655245
-1.4116927 -7.8011994 0.5814535
-1.4107739 -7.4580655 0.58669072
-1.3985006 -7.161963 0.58849037
-1.4042412 -6.850142 0.59481198
-1.4147892 -6.5495629 0.60209447
-1.3813174 -6.3468413 0.59738553
-1.3138237 -6.2135739 0.58350813
-1.2139157 -6.1392264 0.56100869
-1.1312212 -6.0380306 0.54301441
-1.0562224 -5.9274664 0.52699614
-0.95607448 -5.8570528 0.50437707
-0.75478458 -5.9305172 0.45548767
-0.60803014 -5.9186082 0.42088571
-0.42465794 -5.9505119 0.3769058
-0.39727363 -5.7754822 0.37320042
-0.24375881 -5.7622499 0.33701617
-0.05120353 -5.7905512 0.290914
-1.3809949 -9.1993084 0.56359971
-1.398453 -8.7006025 0.57564807
-1.4048439 -8.2697248 0.58399564
-1.4007866 -7.8964949 0.5889501
-1.3958552 -7.5528622 0.59322804
-1.3971961 -7.2205391 0.59881824
-1.3909054 -6.9261751 0.60199511
-1.3981291 -6.6250935 0.60848743
-1.3811972 -6.3874331 0.60823917
-1.3320345 -6.220212 0.5992198
-1.2117381 -6.1811452 0.57127672
-1.1280302 -6.0806088 0.55299783
-1.0519497 -5.9706249 0.53667784
-0.97296786 -5.8680372 0.51955348
-0.77835172 -5.9354701 0.47226983
-0.61479187 -5.9494147 0.43320978
-0.47307312 -5.9275246 0.39990386
-0.37297133 -5.8475399 0.37740266
-0.26807576 -5.7735033 0.35366872
-0.095157191 -5.7811651 0.31248283
0.24623044 -5.9791584 0.22826371
-1.4110901 -8.8249865 0.57843703
-1.4122144 -8.3933878 0.58565927
-1.4112359 -8.0012302 0.59174573
-1.4102659 -7.6389399 0.59735441
-1.4036096 -7.3151422 0.60099155
-1.3893539 -7.0292025 0.60220903
-1.4063787 -6.7009244 0.61155552
-1.3866671 -6.462997 0.61070144
-1.3305076 -6.304451 0.59989399
-1.263737 -6.171629 0.58614516
-1.1133596 -6.1825662 0.55017555
-1.0562519 -6.0389662 0.53890073
-1.0082715 -5.8869457 0.52993339
-0.85891896 -5.8907709 0.4943212
-0.6855284 -5.9233823 0.45252135
-0.58549088 -5.8476715 0.42993155
-0.36763009 -5.9278369 0.37677521
-0.32234842 -5.7764559 0.36844152
-0.15641125 -5.7785597 0.32890517
0.0744792 -5.8519444 0.27275464
-1.394076 -8.9681158 0.57970458
-1.4006747 -8.508009 0.58881611
-1.379584 -8.1519365 0.58961421
-1.3894852 -7.7523308 0.59852576
-1.3828343 -7.41891 0.6024003
-1.3864325 -7.0877304 0.60868663
-1.3823864 -6.7945557 0.61252558
-1.3780161 -6.5210757 0.61596495
-1.339094 -6.3279643 0.60983747
-1.2664651 -6.2044463 0.59452254
-1.1263219 -6.1996765 0.56114095
-1.0838739 -6.0314655 0.55376345
-1.0246632 -5.8970351 0.54183072
-0.8922385 -5.8777647 0.51052856
-0.70879203 -5.9288192 0.46589205
-0.56844157 -5.9107022 0.43267691
-0.37446934 -5.9607701 0.38554147
-0.33407596 -5.802073 0.37849647
-0.20539814 -5.7595725 0.34846687
0.011179171 -5.8207126 0.29574886
-1.4153532 -8.774394 0.59160763
-1.4141102 -8.3433838 0.59864187
-1.4110985 -7.9518557 0.60458177
-1.4083546 -7.5902162 0.6100772
-1.4002527 -7.2671485 0.61363298
-1.4020677 -6.9462209 0.61953127
-1.4003757 -6.6543136 0.62409616
-1.3753408 -6.4261012 0.62197948
-1.3380173 -6.2339191 0.61630183
-1.2376148 -6.1630826 0.59343201
-1.1637868 -6.0479016 0.57768792
-1.061662 -5.9826007 0.55430967
-0.98197412 -5.8821115 0.53691006
-0.81703496 -5.9125161 0.49683508
-0.67235851 -5.9061718 0.46224597
-0.56118578 -5.8481717 0.43657169
-0.33894742 -5.9387717 0.38172507
-0.29290715 -5.7882404 0.37324843
-0.13376273 -5.7845664 0.33514071
0.1333838 -5.906251 0.26899028
-1.3945326 -8.9460468 0.59129387
-1.4050682 -8.4677181 0.60204977
-1.3782289 -8.1216011 0.60154665
-1.3894752 -7.7132587 0.61127317
-1.3850732 -7.371417 0.61609524
-1.378574 -7.0588717 0.61991131
-1.3903892 -6.7306275 0.62840182
-1.3761245 -6.4757524 0.62936038
-1.3227619 -6.3100047 0.61938405
-1.2740017 -6.1443601 0.61051124
-1.1255313 -6.1590381 0.57455444
-1.05729 -6.0344739 0.56029117
-1.0026864 -5.8925829 0.54960412
-0.86542511 -5.8833332 0.51675606
-0.69413531 -5.9201107 0.47492781
-0.58853453 -5.8553495 0.45064703
-0.36766019 -5.9484334 0.39592195
-0.30296814 -5.8224058 0.3825345
-0.17432861 -5.7814436 0.35230112
0.028803986 -5.8296151 0.30261329
-1.3987417 -9.1079731 0.59344918
-1.409946 -8.6100636 0.60475099
-1.4076262 -8.1894655 0.61145848
-1.4032271 -7.808269 0.61698449
-1.3947898 -7.4659777 0.62086838
-1.3928045 -7.1349125 0.62611151
-1.3924369 -6.8240914 0.63139731
-1.3882588 -6.5421658 0.63526529
-1.3466837 -6.3501987 0.62856412
-1.2821417 -6.2110496 0.61541623
-1.1772832 -6.1491423 0.59121525
-1.1188058 -6.0085917 0.57955271
-1.027755 -5.9269223 0.55902135
-0.91709077 -5.8772068 0.53321028
-0.73596519 -5.9325333 0.48859644
-0.58544129 -5.9342203 0.45228818
-0.49682274 -5.8437886 0.43249148
-0.29834005 -5.9028544 0.38362864
-0.22884811 -5.7842116 0.36893213
-0.045300264 -5.8116279 0.32421359
-1.4058268 -8.9418173 0.60763067
-1.4161537 -8.4543343 0.618662
-1.4053222 -8.0625744 0.62290257
-1.402946 -7.6823282 0.62898672
-1.3965367 -7.3410273 0.63341576
-1.3882943 -7.0290613 0.63688946
-1.4024874 -6.6922817 0.64622164
-1.3871433 -6.4381728 0.6469667
-1.3335229 -6.2735829 0.63688916
-1.2560552 -6.1613469 0.62013108
-1.1813855 -6.0482645 0.60406315
-1.0843594 -5.9770761 0.58185583
-0.99386603 -5.8958135 0.56140518
-0.83590484 -5.921639 0.52276617
-0.6923461 -5.9188085 0.48810956
-0.60372287 -5.8311024 0.46822309
-0.39065504 -5.9190693 0.41516882
-0.27910474 -5.8581433 0.38926929
-0.16832753 -5.7950101 0.36359581
0.027587034 -5.837832 0.31547877
-1.3943853 -9.084568 0.61201435
-1.3951265 -8.6056013 0.62067193
-1.3967588 -8.1667328 0.62883687
-1.4010419 -7.7583489 0.63710564
-1.3869734 -7.4258986 0.63958877
-1.3831859 -7.0954366 0.64452726
-1.3896133 -6.7672305 0.65189952
-1.371286 -6.5128703 0.65197086
-1.3290123 -6.3218622 0.64512187
-1.2549294 -6.201416 0.62932169
-1.1598839 -6.1236057 0.60768986
-1.0912429 -6.0013843 0.59323889
-0.99508703 -5.9295282 0.57123142
-0.87932146 -5.8896351 0.54390985
-0.7207194 -5.9137731 0.5050779
-0.62097883 -5.8437805 0.48216912
-0.47143662 -5.8449011 0.44593951
-0.25102034 -5.9383559 0.39090794
-0.19246456 -5.8046999 0.37910068
-0.021756932 -5.8186302 0.33751625
-1.4105608 -8.7375336 0.62636596
-1.4242306 -8.2514191 0.63828307
-1.4130849 -7.870337 0.64232421
-1.4062369 -7.5098748 0.64704466
-1.3986993 -7.1790228 0.65107483
-1.3931333 -6.8683801 0.65522689
-1.3971213 -6.5598388 0.66165859
-1.3573625 -6.3601818 0.65555459
-1.2958776 -6.2139406 0.64323837
-1.209964 -6.119729 0.62407666
-1.1262388 -6.0243564 0.60546738
-1.0346692 -5.9449253 0.58467215
-0.92922908 -5.8893819 0.56008983
-0.77143908 -5.9153452 0.52137029
-0.63350016 -5.9043899 0.4881168
-0.55073535 -5.808763 0.46974275
-0.30947337 -5.9373345 0.4089607
-0.24460879 -5.812675 0.39543995
-0.074597642 -5.8285766 0.3539314
-1.3854805 -8.8976507 0.63004965
-1.3961921 -8.4012213 0.64142996
-1.38332 -8.010129 0.6452204
-1.3902209 -7.6028762 0.65410018
-1.3709688 -7.2898889 0.65496182
-1.3775742 -6.9423614 0.66271514
-1.3697429 -6.6514006 0.66596413
-1.3490084 -6.4069729 0.66525638
-1.2904952 -6.2522759 0.65378433
-1.2036372 -6.1587639 0.63434672
-1.1189604 -6.0640574 0.61546141
-1.0265815 -5.9853568 0.59441948
-0.94092989 -5.8967142 0.57518905
-0.80479378 -5.8907933 0.54223061
-0.63007367 -5.9398603 0.49892908
-0.5630815 -5.820375 0.48477522
-0.33469665 -5.9352217 0.42727205
-0.21145102 -5.8916259 0.39811048
-0.10621974 -5.821734 0.37378985
0.070783108 -5.8432446 0.33041736
-1.3869499 -9.0761414 0.63181633
-1.4109447 -8.5224276 0.64745516
-1.4001318 -8.1122169 0.65209544
-1.398608 -7.7136216 0.65878886
-1.3867072 -7.3726606 0.66194212
-1.377459 -7.0519662 0.6653803
-1.3822459 -6.7242794 0.67235917
-1.3629086 -6.4706964 0.67216122
-1.306864 -6.307332 0.661439
-1.2370572 -6.1791606 0.64674819
-1.1516818 -6.0852885 0.62766504
-1.0636138 -5.9988775 0.607795
-0.96740335 -5.9282441 0.58566493
-0.84668612 -5.8982096 0.55685568
-0.72060031 -5.873981 0.52663827
-0.61605257 -5.8140054 0.50229096
-0.41168416 -5.8987846 0.45110175
-0.20900339 -5.9698825 0.40056717
-0.16701719 -5.8130188 0.39314881
0.01504322 -5.8445888 0.34832707
-1.4166189 -8.1857185 0.66216844
-1.4146476 -7.7775373 0.6689285
-1.3918676 -7.4548402 0.66910905
-1.3868853 -7.1155367 0.67391717
-1.3883955 -6.7875233 0.68010759
-1.3706199 -6.5248094 0.68044418
-1.321557 -6.3438716 0.6717146
-1.2596292 -6.1985655 0.65922123
-1.1783655 -6.0967717 0.64124835
-1.0851471 -6.0199738 0.61992192
-0.98857373 -5.9502778 0.59765369
-0.8882364 -5.8874393 0.57434601
-0.75226384 -5.8815823 0.54135096
-0.64772409 -5.8228116 0.51694828
-0.51641631 -5.8030896 0.48533523
-0.26565659 -5.9504676 0.42167228
-0.20598806 -5.8186903 0.4094896
-0.030761503 -5.8443975 0.36637565
-1.3822449 -8.3619595 0.66110659
-1.3848463 -7.9248857 0.66956282
-1.3829849 -7.5368376 0.67605567
-1.3703942 -7.2063341 0.67890483
-1.3760242 -6.8596048 0.68648779
-1.3552672 -6.5966792 0.68614084
-1.3167676 -6.3889275 0.68048352
-1.2533048 -6.244 0.66761857
-1.1708666 -6.1427488 0.64934796
-1.0814228 -6.0578866 0.62907726
-0.99386805 -5.9716911 0.60928965
-0.90318966 -5.8927541 0.58861071
-0.77792609 -5.8714695 0.55846971
-0.63105434 -5.8808489 0.52251309
-0.53734171 -5.804234 0.50105309
-0.28275102 -5.9623446 0.43617651
-0.19943261 -5.863574 0.41764513
-0.047749415 -5.8589296 0.38076428
0.14108361 -5.8975992 0.33405221
-1.3797622 -9.0169363 0.65236664
-1.3844849 -8.5105457 0.66264892
-1.3882765 -8.0539722 0.6718061
-1.3922466 -7.6374207 0.68028712
-1.3719341 -7.3157067 0.68113124
-1.3733064 -6.9683027 0.68773341
-1.3611758 -6.6777163 0.69001466
-1.3326957 -6.4428735 0.68730187
-1.2676159 -6.2982674 0.67402446
-1.1974701 -6.1709995 0.65920043
-1.1073697 -6.0869279 0.63872427
-1.0239589 -5.9928412 0.62006205
-0.91794348 -5.9405141 0.59512818
-0.81268013 -5.8862104 0.57041299
-0.68721694 -5.8634982 0.54019541
-0.58838058 -5.7965817 0.51727635
-0.34694421 -5.9410324 0.45572814
-0.19014883 -5.9489417 0.41730663
-0.11892298 -5.8331256 0.40200928
0.06250193 -5.8664212 0.35711694
-1.405793 -8.6122875 0.66891712
-1.4044056 -8.1552105 0.67692846
-1.4035456 -7.7381229 0.68433923
-1.3865472 -7.397583 0.68640959
-1.3725216 -7.077282 0.68883926
-1.3803726 -6.7315478 0.69708395
-1.3452609 -6.505765 0.69263667
-1.282582 -6.3524818 0.68012565
-1.2152957 -6.216723 0.66616791
-1.1333081 -6.1156874 0.64798373
-1.0443121 -6.0310493 0.62778449
-0.95230907 -5.953712 0.60671854
-0.846829 -5.9005132 0.58191442
-0.73175961 -5.8622198 0.55449504
-0.62755978 -5.8048973 0.53007925
-0.45869133 -5.8445716 0.4880771
-0.24256024 -5.9450703 0.43340671
-0.17672877 -5.8223457 0.41956636
0.0095147938 -5.8658047 0.37324435
-1.3713764 -8.8084373 0.66649431
-1.3928199 -8.2657375 0.68179494
-1.3733644 -7.8854613 0.68407923
-1.3694813 -7.4978757 0.69031119
-1.3590797 -7.1587501 0.69405192
-1.359257 -6.8216662 0.70034689
-1.3334112 -6.5684891 0.69871759
-1.2731104 -6.4064608 0.68696719
-1.2173908 -6.244318 0.67633939
-1.1391367 -6.1351767 0.65921509
-1.0449779 -6.0601406 0.63756472
-0.95239788 -5.9836116 0.61632788
-0.85149366 -5.9227557 0.59276366
-0.74652755 -5.8685937 0.56808019
-0.62135255 -5.8460212 0.53786314
-0.51741797 -5.7875519 0.51351213
-0.24291985 -5.9811749 0.44273087
-0.17612097 -5.8590255 0.42865089
-0.0019243787 -5.8881392 0.38547373
-1.3805411 -8.9289513 0.6746853
-1.3670919 -8.4703417 0.67988425
-1.3951164 -7.9392204 0.69659078
-1.3769881 -7.5793958 0.69881755
-1.362818 -7.2399702 0.70163822
-1.3592505 -6.9024744 0.7070213
-1.3303703 -6.6490979 0.70464635
-1.2884939 -6.4420228 0.69823015
-1.2227054 -6.2982016 0.68478322
-1.1475462 -6.1806407 0.66855592
-1.0616689 -6.0886965 0.64922637
-0.97320938 -6.0042787 0.62912571
-0.87196726 -5.9444051 0.60543913
-0.76671785 -5.8912611 0.58064461
-0.65705627 -5.8445873 0.5546487
-0.54258674 -5.8041029 0.52736109
-0.29734388 -5.9591331 0.46440622
-0.01740237 -5.9259315 0.39644313
0.11180594 -5.8886065 0.36548331
-1.3896569 -9.0969887 0.68003368
-1.3886361 -8.5809317 0.68926048
-1.3976543 -8.0866251 0.70055163
-1.3881844 -7.6888189 0.70553672
-1.3733399 -7.3396692 0.70831251
-1.3581889 -7.0200868 0.71047086
-1.3490708 -6.7114515 0.71390784
-1.3129724 -6.4863338 0.70919579
-1.2498963 -6.3339643 0.69653356
-1.1736249 -6.2169933 0.67998332
-1.0868443 -6.1257424 0.66038537
-1.0022166 -6.0332818 0.64133698
-0.90531087 -5.9656568 0.61882126
-0.80474812 -5.9049687 0.59528124
-0.69500989 -5.8594565 0.56921148
-0.58052027 -5.8201785 0.5418613
-0.40698373 -5.8697944 0.49839708
-0.23065835 -5.9149008 0.45433038
-0.12533683 -5.8502016 0.42969495
0.071905665 -5.9113441 0.38020289
-1.4163909 -8.1777649 0.7110194
-1.3956848 -7.7983689 0.71287346
-1.3834517 -7.4301772 0.71660197
-1.3717955 -7.0917897 0.71993113
-1.359242 -6.7829018 0.72250295
-1.3244084 -6.5486465 0.71824551
-1.2676649 -6.378489 0.7074458
-1.1986388 -6.2441554 0.69297719
-1.1110506 -6.1536818 0.67315429
-1.0210137 -6.0707741 0.65259159
-0.92809373 -5.9952283 0.63118857
-0.82698303 -5.9354415 0.60748655
-0.72689211 -5.8738508 0.58406842
-0.62267542 -5.8189235 0.55951649
-0.4873386 -5.8120832 0.5264495
-0.25830886 -5.9422812 0.46788856
-0.16934647 -5.8541965 0.44768369
0.026856093 -5.9175224 0.39839843
-1.3756336 -8.8964443 0.70124209
-1.3811617 -8.3720865 0.71200615
-1.3740792 -7.9354415 0.71810251
-1.3706136 -7.5292807 0.72454208
-1.3584731 -7.1812077 0.72780907
-1.3422483 -6.8719597 0.72937745
-1.3121898 -6.6192555 0.72653252
-1.2613877 -6.4311109 0.71743077
-1.1865765 -6.3061495 0.70129424
-1.1107391 -6.1894002 0.68475783
-1.0243909 -6.0983787 0.66517591
-0.93552101 -6.0149131 0.64483941
-0.83888608 -5.9474478 0.62230641
-0.72866654 -5.9040718 0.59600151
-0.62400961 -5.8500648 0.57125288
-0.50438541 -5.8192577 0.54240811
-0.28229228 -5.9434834 0.48558798
-0.18210334 -5.872972 0.46223482
0.075629346 -6.0272613 0.39610943
0.17140064 -5.9423079 0.37409925
-1.3910671 -8.9974852 0.71171391
-1.3787875 -8.5105858 0.71739453
-1.3757483 -8.0450373 0.72497064
-1.3809048 -7.6009016 0.73418283
-1.3545492 -7.2805424 0.73342419
-1.3345183 -6.9709158 0.73403186
-1.3049642 -6.7087708 0.73144662
-1.2674907 -6.4841766 0.72624016
-1.2036455 -6.332582 0.71323556
-1.1183114 -6.2344227 0.69398338
-1.0309613 -6.1440082 0.67409629
-0.94115901 -6.0611749 0.65346974
-0.85795301 -5.9682889 0.63464683
-0.75247914 -5.9173675 0.60959071
-0.64772761 -5.8644786 0.58474731
-0.5333823 -5.8264952 0.55727452
-0.33413646 -5.919632 0.50654852
-0.19072624 -5.9166431 0.47129056
0.026543256 -6.0161314 0.41601032
0.10492053 -5.9085383 0.3986389
-1.3709456 -8.1548128 0.73114169
-1.3642957 -7.7288976 0.73714852
-1.3437389 -7.3800988 0.73834258
-1.3305556 -7.0423245 0.74115884
-1.3129568 -6.7432814 0.74219197
-1.269479 -6.5280924 0.73533577
-1.1999462 -6.3859854 0.72073978
-1.1174998 -6.2793741 0.70232171
-1.0377855 -6.1717677 0.68459439
-0.94724774 -6.0897369 0.66373885
-0.85855979 -6.00634 0.6433621
-0.76691908 -5.9302964 0.62212634
-0.65702569 -5.8870945 0.59579688
-0.54758513 -5.8417435 0.56961584
-0.39664668 -5.8613558 0.5320282
-0.22779892 -5.9021692 0.48963943
-0.11175674 -5.8567286 0.46182996
0.10029481 -5.9464664 0.40790004
-1.35809 -8.8643064 0.72152776
-1.3693137 -8.3117762 0.73417997
-1.3696399 -7.8474226 0.74256313
-1.3580024 -7.4607344 0.74660349
-1.3445648 -7.1134043 0.74949551
-1.323692 -6.8141937 0.74969137
-1.2814858 -6.5898843 0.74327445
-1.2141646 -6.4390187 0.72933817
-1.1386907 -6.3148723 0.7129072
-1.0536745 -6.2168598 0.69365239
-0.97108376 -6.1177416 0.67501563
-0.88174772 -6.0351453 0.65441602
-0.78478366 -5.968636 0.63164324
-0.68421513 -5.9090929 0.60785455
-0.57963175 -5.8562932 0.58295184
-0.45510021 -5.835279 0.55255103
-0.25043684 -5.9366603 0.50015134
-0.12861162 -5.9005051 0.47068858
0.12752612 -6.0571961 0.40457249
-1.3839544 -8.9744816 0.73194158
-1.3830422 -8.4403992 0.74123025
-1.36823 -8.0037947 0.74534684
-1.3903074 -7.5036325 0.75972307
-1.3529272 -7.2123075 0.75567275
-1.3245883 -6.9220428 0.75384218
-1.2940016 -6.6606951 0.75094235
-1.236281 -6.4826798 0.73984522
-1.1553227 -6.3681312 0.72186911
-1.068964 -6.2706618 0.70225233
-0.99375027 -6.1542273 0.68573064
-0.90351015 -6.0723629 0.66487473
-0.81044316 -5.997889 0.64318866
-0.71413136 -5.9305983 0.62057108
-0.60919541 -5.8788247 0.59554273
-0.48968881 -5.8505411 0.56648868
-0.32811999 -5.8868461 0.52587551
-0.16963606 -5.9108009 0.48624462
0.10136538 -6.094686 0.41591766
0.15305118 -5.9468241 0.40577596
-1.3510569 -8.131279 0.7535792
-1.4247392 -7.4605985 0.78353035
-1.3592176 -7.2449665 0.77105474
-1.3037251 -7.0200295 0.76122725
-1.2844062 -6.7214694 0.76165062
-1.2322652 -6.525351 0.75215179
-1.1500779 -6.4113898 0.73377734
-1.0709101 -6.2964921 0.71616542
-0.98618245 -6.1986289 0.6968798
-0.90387487 -6.0996661 0.67821264
-0.81022817 -6.0260329 0.65629435
-0.71339685 -5.9595971 0.63345993
-0.61295933 -5.9001503 0.60960919
-0.50347221 -5.8559632 0.58324963
-0.36857253 -5.8518205 0.54989177
-0.19020709 -5.9113169 0.50464863
-0.019655233 -5.9496398 0.46170911
0.14774352 -5.9754481 0.41976938
-1.3729962 -8.2018509 0.76590097
-1.4114987 -7.2021337 0.79282027
-1.3022239 -6.7636194 0.77334332
-1.2443991 -6.5770369 0.76224709
-1.1686343 -6.4453244 0.74574852
-1.0843127 -6.3401179 0.72666842
-0.99848843 -6.2428632 0.70707566
-0.9238112 -6.1266518 0.6905781
-0.82505906 -6.062674 0.66720188
-0.73688388 -5.9795194 0.64678103
-0.64093781 -5.9123878 0.62415481
-0.52643949 -5.8779254 0.59635973
-0.40189484 -5.8581057 0.56581557
-0.22974271 -5.9110746 0.52219605
-0.10323352 -5.8849592 0.49127376
0.13412695 -6.019949 0.43005094
-1.3564802 -8.9295187 0.755288
-1.4407909 -7.2052493 0.80664271
-1.3003454 -6.8423581 0.77818882
-1.2547054 -6.618938 0.77080858
-1.1736856 -6.4969149 0.75285542
-1.0800353 -6.4104304 0.73113948
-1.0091726 -6.2774515 0.71590281
-0.92477143 -6.1797123 0.69668245
-0.84279424 -6.0808744 0.67808324
-0.74946237 -6.0073624 0.65621829
-0.65293837 -5.941062 0.63343304
-0.54303002 -5.8989849 0.6068961
-0.42348015 -5.8718104 0.57770151
-0.27275455 -5.8927283 0.53991544
-0.12026376 -5.9099813 0.50175464
0.1322279 -6.0718522 0.43620458
-1.3398736 -9.1346579 0.7570582
-1.3281211 -8.0870037 0.77263921
-1.4599475 -7.2270136 0.82060623
-1.3478637 -7.1544461 0.79402292
-1.285633 -6.949379 0.78217709
-1.254745 -6.6794319 0.77926826
-1.1721394 -6.5578566 0.76088136
-1.0967537 -6.4262486 0.74446613
-1.0128068 -6.321146 0.72545326
-0.93156022 -6.2150173 0.70713216
-0.84429413 -6.1257372 0.68701464
-0.75915295 -6.0352335 0.66744685
-0.66213924 -5.9697857 0.64448631
-0.56157553 -5.911356 0.62051666
-0.43719921 -5.8939891 0.58989984
-0.31239992 -5.8739314 0.55922657
-0.15048821 -5.9098635 0.51833159
0.10538978 -6.0826421 0.45165303
0.20227386 -6.0022058 0.4289858
-1.3530358 -8.1758432 0.78090543
-1.4947398 -7.2574282 0.83251303
-1.3978516 -7.1386652 0.81051588
-1.3008989 -7.0280333 0.78835702
-1.270275 -6.7486815 0.78571093
-1.1931741 -6.6090374 0.76901168
-1.1123421 -6.4870515 0.75106895
-1.0268502 -6.3824129 0.73165786
-0.95233995 -6.2586527 0.71532053
-0.86398005 -6.1699891 0.69491112
-0.77773178 -6.0800753 0.67504978
-0.68442333 -6.0065393 0.65313834
-0.58317745 -5.9489088 0.62896854
-0.48291948 -5.8894749 0.6050747
-0.35345703 -5.8794036 0.5730316
-0.21295819 -5.8833122 0.53798938
-0.039326049 -5.9339609 0.49386638
0.202672 -6.0789819 0.43103737
-1.3423096 -8.9129801 0.77286333
-1.521801 -7.2781429 0.84657598
-1.4271246 -7.1507945 0.82521582
-1.2898698 -6.7807355 0.797535
-1.2043302 -6.6602511 0.77833253
-1.1183329 -6.5479946 0.75887126
-1.0392436 -6.4255695 0.74131262
-0.95940393 -6.3113976 0.72342128
-0.87414277 -6.2143087 0.70387417
-0.795663 -6.1071944 0.68619645
-0.70182234 -6.0344863 0.66407788
-0.60951954 -5.9602761 0.64236999
-0.50432855 -5.9105625 0.61701089
-0.38495192 -5.8845954 0.58769262
-0.25011981 -5.8815589 0.55411232
-0.088093631 -5.917366 0.51305848
0.16789953 -6.0899911 0.4461365
-1.327788 -9.0985184 0.77685732
-1.4380167 -7.1812658 0.83819485
-1.2737391 -6.8778701 0.80249232
-1.1929238 -6.7390413 0.78474587
-1.1160431 -6.599452 0.76799464
-1.039258 -6.4683604 0.75111854
-0.95811594 -6.3547573 0.7328456
-0.87584352 -6.2492561 0.71414638
-0.78768873 -6.1606598 0.69367927
-0.70164758 -6.0708208 0.67376125
-0.60854411 -5.9973516 0.65178925
-0.51224452 -5.9310932 0.62889147
-0.38788271 -5.914897 0.59809417
-0.26811448 -5.8874888 0.56864178
-0.11716603 -5.9081659 0.53054637
0.14729734 -6.1002283 0.46104369
-1.3264111 -8.1494446 0.80125064
-1.46724 -7.2110047 0.85277396
-1.3581123 -7.1313033 0.82682514
-1.2805179 -6.9653363 0.81026685
-1.1974825 -6.8268089 0.79187113
-1.1219729 -6.6781864 0.77553576
-1.0507127 -6.5289783 0.76027375
-0.97978371 -6.3884254 0.74494487
-0.88839561 -6.3017149 0.72355944
-0.80331433 -6.2046952 0.70393109
-0.71626967 -6.1154647 0.68367642
-0.62682515 -6.033843 0.66268885
-0.5298835 -5.9683709 0.63954186
-0.41493356 -5.9358854 0.61131352
-0.30010694 -5.901072 0.58315414
-0.15990618 -5.9063292 0.54794443
0.091781452 -6.084373 0.48181114
0.28047043 -6.1473155 0.43345213
-1.2964777 -9.1278486 0.79955041
-1.5102438 -7.2587399 0.88445622
-1.405569 -7.1619134 0.85980088
-1.1210555 -6.8251891 0.79402339
-1.045575 -6.6765542 0.77756697
-0.97058344 -6.5365319 0.76108855
-0.89560914 -6.4050212 0.7444731
-0.80391848 -6.3181486 0.72291458
-0.73120153 -6.1940069 0.706743
-0.63994336 -6.1137471 0.68518406
-0.54598403 -6.0409312 0.66282022
-0.44421729 -5.9840908 0.63823003
-0.33378428 -5.9427576 0.61120421
-0.20887715 -5.9249697 0.58014792
-0.058002811 -5.9468703 0.54190826
0.23123105 -6.183075 0.4653374
-1.43735 -7.1721454 0.87651801
-1.2441865 -6.947619 0.83173585
-1.127037 -6.9036961 0.80304575
-1.0529079 -6.7460537 0.78704774
-0.98334199 -6.5879064 0.77220345
-0.90298939 -6.4660268 0.75404876
-0.82195437 -6.3524003 0.73558575
-0.73563385 -6.2559037 0.71551257
-0.64312452 -6.1761537 0.69360662
-0.56577033 -6.0683908 0.67597127
-0.46815848 -6.003685 0.65253407
-0.3575626 -5.9634142 0.62542832
-0.23757547 -5.9382224 0.59571487
-0.097291499 -5.9446096 0.56037754
0.15306123 -6.1247649 0.49450672
0.34667894 -6.1976023 0.44466811
-1.4635845 -7.2295299 0.88898969
-1.3535241 -7.1518612 0.86261052
-1.2673025 -7.0062957 0.84333879
-1.1656044 -6.9162145 0.81926572
-1.0696746 -6.8152976 0.7968201
-0.97640592 -6.7130628 0.77506584
-0.91588289 -6.5359626 0.76277006
-0.84097111 -6.4044447 0.74610937
-0.75747609 -6.2994423 0.72685617
-0.6766817 -6.1934137 0.70829952
-0.57673824 -6.1309605 0.68421412
-0.4915792 -6.0403209 0.66430771
-0.38519666 -5.9922218 0.63836902
-0.26503173 -5.9681044 0.60857177
-0.13476513 -5.9586091 0.57599628
0.052412912 -6.0394711 0.52763253
0.25913629 -6.1405015 0.4740254
-1.2924399 -9.1384802 0.82276177
-1.4937038 -7.2579627 0.9040454
-1.3856649 -7.1717024 0.87831551
-1.2920866 -7.0458694 0.85686374
-1.0820217 -6.8845015 0.80673301
-0.97648829 -6.8106952 0.78142953
-0.92420799 -6.6059074 0.77164882
-0.85503346 -6.4563913 0.75671989
-0.77413613 -6.3428292 0.73825788
-0.69209957 -6.2373748 0.7193768
-0.59557629 -6.1667185 0.69628686
-0.50055677 -6.0945044 0.67360151
-0.40247479 -6.0295401 0.6500265
-0.3009012 -5.9716148 0.62545896
-0.16605826 -5.9721651 0.59157431
-0.015085518 -5.9952369 0.55326778
0.2154402 -6.1411033 0.49295589
-1.395192 -7.1997185 0.89520174
-1.0985726 -6.8868699 0.8255741
-0.97896981 -6.8514557 0.79605901
-0.90306121 -6.7026076 0.77933264
-0.84268296 -6.5255599 0.76696086
-0.7679022 -6.3941069 0.75024325
-0.68453139 -6.2891674 0.73094493
-0.59541643 -6.2011719 0.70993268
-0.49965772 -6.1297221 0.68698633
-0.40542141 -6.0567193 0.6644448
-0.29402584 -6.0171828 0.6370576
-0.18301538 -5.9754815 0.60980093
-0.032685835 -6.0001502 0.5715977
0.20640117 -6.1653028 0.50883299
-1.4231281 -7.2180295 0.91137874
-1.1241107 -6.9078245 0.84086305
-1.0042828 -6.8734756 0.81120801
-0.90251732 -6.7904129 0.78686011
-0.85803819 -6.5672755 0.77912253
-0.77039963 -6.4638548 0.75865078
-0.68944329 -6.3502131 0.74002129
-0.60319632 -6.2536917 0.71979314
-0.51075196 -6.1739225 0.69774318
-0.42012 -6.0927463 0.6761722
-0.31751803 -6.0365558 0.65119576
-0.20638017 -5.9959269 0.62382597
-0.071164541 -5.9961963 0.58975434
0.10538226 -6.0615797 0.54425329
-1.2447053 -9.137661 0.84873456
-1.4339749 -7.2459226 0.92569035
-1.2316763 -7.0359125 0.87791204
-0.90538263 -6.8320465 0.79876238
-0.83704668 -6.6647921 0.78411335
-0.7660591 -6.5156121 0.76851743
-0.68364674 -6.4024873 0.74948144
-0.59609604 -6.3065267 0.72888303
-0.50671583 -6.2183781 0.70770264
-0.41506973 -6.1378617 0.6858328
-0.31619075 -6.0736032 0.66188687
-0.21388431 -6.0164146 0.63696581
-0.073976979 -6.0266409 0.6015147
0.077194452 -6.0507703 0.56300473
0.24554548 -6.0966973 0.51982272
-1.2542911 -7.0842633 0.88972682
-0.93847728 -6.8453751 0.81360602
-0.83720958 -6.7625022 0.78929305
-0.77848369 -6.5765061 0.7773152
-0.70606261 -6.436348 0.76117069
-0.62159419 -6.3320127 0.74143243
-0.52323425 -6.2627087 0.717646
-0.43065766 -6.1828637 0.69548291
-0.33989537 -6.1016045 0.67379946
-0.22796494 -6.0629058 0.64611369
-0.1164044 -6.0220232 0.61855322
0.02901274 -6.039259 0.5815447
0.2717759 -6.2149792 0.51750034
-1.2687287 -7.1515141 0.90012956
-0.96811098 -6.858305 0.82858306
-0.85592848 -6.8044124 0.80103511
-0.76644409 -6.692976 0.78010958
-0.71002734 -6.5067978 0.76869172
-0.63168967 -6.3846202 0.75075054
-0.53631723 -6.3069425 0.72781849
-0.45116615 -6.2098246 0.70777071
-0.35093012 -6.1472073 0.68337798
-0.25191548 -6.0828881 0.65932024
-0.13545284 -6.0518503 0.63033903
0.00019647711 -6.0530987 0.59600747
0.21137862 -6.1798005 0.540645
-1.2314401 -9.1196051 0.87132233
