# .PCD v0.7 - Point Cloud Data file format
VERSION 0.7
FIELDS x y z
SIZE 4 4 4
TYPE F F F
COUNT 1 1 1
WIDTH 1514
HEIGHT 1
VIEWPOINT 0 0 0 1 0 0 0
POINTS 1514
DATA ascii
-1.5261732 1.7134401 0.72403026
-1.6429925 1.7319365 0.75198883
-1.7247474 1.7652236 0.77190065
-1.8923042 1.7484429 0.81127405
-2.1431582 1.677012 0.86943918
-2.256093 1.6783119 0.8961947
-2.3348897 1.6969587 0.91516644
-2.3887732 1.7294099 0.92847431
-2.3208568 1.8431671 0.91432786
-2.2640574 1.9541961 0.90276402
-2.2499442 2.0387685 0.90085661
-1.3134875 1.6830634 0.67943519
-1.4486238 1.698796 0.71168488
-1.5480893 1.7277251 0.73570955
-1.6648167 1.7445385 0.76362044
-1.7724291 1.7624017 0.78939193
-1.9905093 1.7139766 0.84021693
-2.1805818 1.6732938 0.88454145
-2.2763343 1.6829598 0.90737319
-2.3467159 1.7056028 0.92441338
-2.3761046 1.7534493 0.93216789
-2.2930374 1.8789837 0.91458637
-2.2694128 1.9678791 0.91046953
-2.2006056 2.093406 0.89626122
-1.3672358 1.6877822 0.69631422
-1.4667838 1.7183818 0.7204197
-1.5662526 1.7459444 0.74445707
-1.7001641 1.752013 0.77630818
-1.8417908 1.7490568 0.80983967
-2.0926445 1.6776145 0.8681435
-2.2056022 1.6789025 0.89495063
-2.2927482 1.692328 0.91583973
-2.3548024 1.7192538 0.93100297
-2.3274453 1.8051498 0.92593497
-2.2780869 1.9095099 0.91595262
-2.2791383 1.9813412 0.9173888
-2.1955073 2.119087 0.8998273
-1.2402624 1.6829357 0.67887717
-1.3665514 1.7029006 0.70914578
-1.4660774 1.7319894 0.73321903
-1.5654906 1.7580489 0.7572161
-1.7077682 1.757627 0.79094815
-1.9257568 1.7090693 0.84185171
-2.1072857 1.6732481 0.88431782
-2.1946678 1.6880714 0.90528399
-2.2734036 1.7055782 0.92424363
-2.3355196 1.7316569 0.93940264
-2.3006232 1.8230795 0.93261504
-2.268049 1.91626 0.92640573
-2.2694268 1.9876451 0.92789471
-2.1320932 2.1677852 0.89825159
-1.1920658 1.6788981 0.68104416
-1.3271186 1.6944875 0.71334445
-1.4089739 1.7320249 0.73337251
-1.508384 1.7580855 0.75738311
-1.6506593 1.757665 0.79114294
-1.860108 1.7139591 0.84015274
-2.0501573 1.6733016 0.88460976
-2.1375365 1.688126 0.9055894
-2.2162731 1.705633 0.92456144
-2.2865739 1.7262771 0.94158101
-2.3324828 1.761687 0.95304948
-2.2748799 1.8704729 0.94112331
-2.2833722 1.9348512 0.94417399
-2.2854648 2.0054953 0.94580591
-0.85886663 1.7645413 0.61454588
-1.2086835 1.6867359 0.69646013
-1.3170096 1.7130598 0.72263968
-1.4076588 1.7449347 0.74470651
-1.5242558 1.7602583 0.77267617
-1.7003 1.7385749 0.81418651
-1.9254959 1.6816268 0.86681974
-2.0469258 1.6780201 0.89563936
-2.1257408 1.6966803 0.91468537
-2.1961038 1.7183949 0.93177068
-2.2663677 1.7381217 0.9488017
-2.2641184 1.8067738 0.9493764
-2.2554758 1.8818315 0.94853431
-2.2564504 1.9517871 0.94989687
-2.2667656 2.0161788 0.9533906
-1.0526603 1.7061645 0.66402823
-1.2411546 1.6975471 0.70881027
-1.3405677 1.726493 0.73297668
-1.4398588 1.7523885 0.75706679
-1.556181 1.7658855 0.78501385
-1.7657313 1.7224916 0.83425182
-1.9727819 1.6721578 0.8827824
-2.0684857 1.6818397 0.90575665
-2.1388223 1.7044888 0.92289829
-2.2090878 1.7251356 0.93998927
-2.2549679 1.7605462 0.95150977
-2.2532933 1.8292214 0.95223981
-2.2610757 1.8925964 0.95513642
-2.2702327 1.9562466 0.95836568
-2.2653954 2.032433 0.95846325
-0.84627008 1.735055 0.62500459
-1.133459 1.6851295 0.69281226
-1.241768 1.7114539 0.71913493
-1.3324032 1.7433281 0.74132758
-1.4489796 1.7586532 0.7694453
-1.5907173 1.7560327 0.80328143
-1.8416654 1.6849513 0.86208415
-1.963158 1.6814916 0.89106989
-2.0586824 1.6898663 0.9140448
-2.1289482 1.7114416 0.93120331
-2.1909797 1.7365227 0.94645202
-2.2289364 1.7768914 0.9562
-2.2277567 1.8454276 0.95706171
-2.2438297 1.902645 0.96185988
-2.24559 1.9720093 0.9634375
-2.2031147 2.0791943 0.9550674
-0.74613875 1.753107 0.61114675
-1.0602093 1.6915977 0.68549132
-1.1950108 1.7053645 0.7180934
-1.2768193 1.7415462 0.73835701
-1.3847107 1.7614918 0.76460576
-1.5264943 1.7590458 0.79860747
-1.7859631 1.6832362 0.85960722
-1.9074264 1.679795 0.88871545
-2.0029225 1.6881796 0.91179276
-2.0649364 1.7151289 0.92715049
-2.1351683 1.734853 0.94435889
-2.1891799 1.7639104 0.95783156
-2.2036729 1.8205563 0.96229059
-2.1957984 1.8950434 0.96168214
-2.2516301 1.9216954 0.9755531
-2.2159379 2.0215516 0.968701
-0.92405456 1.6889226 0.6624468
-1.0680541 1.7009963 0.69734269
-1.1937841 1.7171715 0.72791368
-1.2842182 1.7474962 0.75022793
-1.4090441 1.7563579 0.78045529
-1.5587118 1.7467763 0.81634563
-1.8168197 1.6675124 0.87714791
-1.9124349 1.6772385 0.90035784
-1.9826936 1.6999196 0.9176861
-2.0610576 1.7151587 0.93683827
-2.0825002 1.7671866 0.94291925
-2.1688619 1.773155 0.96383768
-2.1046355 1.8880686 0.95037353
-2.1760683 1.903649 0.96786332
-2.2164845 1.941835 0.97827375
-2.2195029 2.0105691 0.98020583
-0.6626367 1.7534137 0.60448688
-1.0121933 1.6756951 0.68747354
-1.0851643 1.7191006 0.70583797
-1.2021109 1.7381572 0.73438954
-1.3099635 1.758163 0.76076323
-1.4431348 1.7605491 0.79294294
-1.7026559 1.6850266 0.85425305
-1.832575 1.6767365 0.88546252
-1.9280374 1.6851718 0.90865052
-1.9982425 1.7067901 0.92597359
-2.0520821 1.7374294 0.93950403
-2.0900722 1.7779589 0.94938409
-2.0968761 1.8408427 0.95212603
-2.1050415 1.9040129 0.95520198
-2.1765349 1.9188179 0.97271883
-2.2095518 1.962726 0.98145652
-2.2131779 2.0314279 0.98353285
-0.58711827 1.7586906 0.59812123
-0.94565791 1.6772826 0.68344212
-1.0538602 1.703721 0.71009469
-1.1356723 1.7401428 0.73053914
-1.2522242 1.7557359 0.75902289
-1.3768113 1.7629372 0.78930318
-1.5685122 1.7269372 0.83506215
-1.7747937 1.6745101 0.88406163
-1.8702445 1.6829817 0.90731543
-1.9322065 1.7099863 0.92279506
-1.9942529 1.7352823 0.93826461
-2.0402672 1.7701809 0.95002341
-2.0946238 1.7981634 0.96367949
-2.0236113 1.9196906 0.94864625
-2.0489233 1.9713879 0.95569253
-2.1745474 1.9420084 0.98558521
-2.1702964 2.016654 0.98588067
-0.77285248 1.6917374 0.65346825
-0.96111113 1.6831822 0.69895995
-1.0515505 1.7164561 0.72148317
-1.1333344 1.7515268 0.74194157
-1.258284 1.7607896 0.77240592
-1.4251429 1.741962 0.81253034
-1.641016 1.6878122 0.86390966
-1.7704757 1.6778194 0.89512825
-1.8490725 1.6954193 0.91450578
-1.9192355 1.7161547 0.93189538
-1.9407456 1.7683492 0.93805027
-2.0893528 1.7957387 0.97458887
-2.0813024 1.8692938 0.973957
-2.1057935 1.9191022 0.98079216
-2.1312315 1.9685947 0.98785138
-0.88220876 1.6711292 0.68330854
-0.99030757 1.6974373 0.71002018
-1.072017 1.7337201 0.73050272
-1.1798174 1.7537901 0.75703162
-1.3043772 1.7610242 0.7874015
-1.4875643 1.7299893 0.83132362
-1.7023137 1.6727109 0.882442
-1.7894199 1.6864122 0.90383816
-1.8596742 1.7082266 0.92128807
-1.9298387 1.7280431 0.93868059
-1.9033593 1.8136384 0.93378061
-0.69846684 1.6907912 0.65136176
-0.88671482 1.6822659 0.69697863
-0.98590696 1.7111849 0.72161388
-1.0676175 1.7461094 0.74210435
-1.1838787 1.7599127 0.770621
-1.3336728 1.7507671 0.80688316
-1.5496957 1.6969403 0.85845554
-1.7127609 1.6667334 0.89757174
-1.7746401 1.6946157 0.91311914
-1.8366226 1.7207851 0.92866224
-1.866318 1.767554 0.9367215
-0.44175816 1.7526492 0.59582663
-0.79119617 1.675279 0.67953491
-0.9168855 1.693163 0.71047103
-1.0158923 1.7203985 0.73507863
-1.0801649 1.7630007 0.75150502
-1.2305052 1.7562586 0.78800666
-1.4050354 1.7299627 0.83005053
-1.6196845 1.6726657 0.88131076
-1.723349 1.6759452 0.90663141
-1.7851355 1.7028134 0.92217469
-1.8470045 1.7279814 0.93770975
-1.8204782 1.8135798 0.93279773
-0.63381726 1.6957072 0.64807898
-0.83094221 1.683082 0.69588506
-0.93889284 1.7076052 0.72263008
-1.0205338 1.7423511 0.74314719
-1.1281018 1.7606484 0.76969051
-1.2778831 1.7514687 0.80602551
-1.4938762 1.6975813 0.85769695
-1.6318437 1.6827362 0.89105636
-1.7353376 1.684626 0.91631466
-1.7971457 1.7104837 0.93184429
-1.8104929 1.7681074 0.93613571
-0.45185053 1.7144371 0.61633366
-0.72080106 1.6725178 0.68120563
-0.83764231 1.6944762 0.71012145
-0.93667287 1.7216527 0.73478717
-1.0096204 1.7596192 0.75328487
-1.1427605 1.7621807 0.78582978
-1.3258473 1.7310345 0.82995367
-1.5404719 1.6736361 0.88130194
-1.6275301 1.6872973 0.90280622
-1.7141891 1.6983496 0.92416668
-1.7841282 1.7178291 0.94159925
-1.8137314 1.7635841 0.94966584
-0.6051833 1.6767715 0.65709376
-0.75778919 1.6843262 0.69452453
-0.86572748 1.7087998 0.7213493
-0.94736105 1.7435024 0.74193347
-1.0549165 1.7617499 0.76855379
-1.2046642 1.7524948 0.80498344
-1.4205955 1.6985083 0.85677624
-1.5668901 1.6784583 0.89216846
-1.6372077 1.7012985 0.90977556
-1.715632 1.7166969 0.92922848
-1.7775844 1.740967 0.94481927
-0.37235221 1.7270732 0.60763782
-0.66798675 1.6731304 0.67902994
-0.78477025 1.6950428 0.70804399
-0.88375157 1.7221947 0.73279667
-0.96529603 1.7555215 0.75339633
-1.1154147 1.748358 0.7900359
-1.2812145 1.726522 0.83024639
-1.4872719 1.6739676 0.87974536
-1.5742764 1.6875888 0.90132183
-1.6362203 1.7147062 0.91701329
-1.7063838 1.734599 0.93458402
-1.7844415 1.7468483 0.95394689
-0.52857596 1.6774228 0.65611213
-0.68995804 1.6807053 0.69572783
-0.78903741 1.7093508 0.72055125
-0.8706395 1.7440238 0.74120629
-0.97815835 1.7622354 0.76790446
-1.1108136 1.762605 0.80043024
-1.3437132 1.698849 0.85632664
-1.4899567 1.6787511 0.89180249
-1.5685035 1.6962674 0.91139305
-1.6304601 1.7223686 0.92707622
-0.58976507 1.6739252 0.67850417
-0.71539098 1.6915088 0.70964837
-0.80563736 1.7229273 0.73237365
-0.88724142 1.7562332 0.75301373
-1.0288408 1.7537893 0.78770733
-1.1862845 1.7369806 0.82602048
-1.4009267 1.679593 0.87761116
-1.4880706 1.6933396 0.89925104
-1.5748171 1.7044847 0.92074585
-1.6286021 1.7350972 0.93451631
-0.44863948 1.6902902 0.64821327
-0.63670397 1.6813731 0.69421673
-0.74455065 1.7056285 0.72114164
-0.8261022 1.7401409 0.74179912
-0.92496318 1.7628683 0.76649028
-1.0746689 1.7535415 0.80307329
-1.2820903 1.7044424 0.85309529
-1.4367712 1.6793333 0.8906132
-1.5153416 1.6968447 0.9102304
-1.5691471 1.7283795 0.92402548
-0.52889889 1.6783669 0.67541426
-0.66333842 1.6918093 0.70869619
-0.75354904 1.7232215 0.73144531
-0.83511525 1.7565293 0.75210726
-0.97667074 1.7540739 0.78684723
-1.1001639 1.7569338 0.81724858
-1.3486578 1.6798661 0.87688798
-1.4440684 1.6883972 0.90049893
-1.5224731 1.7047619 0.92007595
-1.5843462 1.7298546 0.93575448
-0.38753077 1.6831336 0.64994663
-0.55773127 1.6823174 0.69184136
-0.66551429 1.7065585 0.71882415
-0.74701035 1.7410618 0.73951989
-0.84580743 1.7637748 0.76426518
-1.012463 1.7447461 0.80496287
-1.1858968 1.7152954 0.84714216
-1.3573629 1.6801698 0.88873798
-1.4358726 1.6976814 0.90839833
-1.5141309 1.7128795 0.92795563
-1.5678549 1.7425569 0.94173431
-0.46809459 1.67093 0.67626178
-0.58485037 1.6926339 0.70543182
-0.67509753 1.7240391 0.72824419
-0.76533818 1.75272 0.75100499
-0.89827794 1.7548589 0.78381568
-1.0641656 1.7331045 0.82431543
-1.278664 1.6755311 0.87615341
-1.3740227 1.6839036 0.89981371
-1.4359452 1.7108395 0.91556871
-1.5060768 1.7305539 0.93321675
-0.2536754 1.7072979 0.63405371
-0.46836305 1.6863215 0.68672615
-0.58495015 1.7063391 0.715904
-0.666435 1.7408316 0.73667121
-0.76522136 1.7635496 0.76149994
-0.93185258 1.7445076 0.80234045
-1.1052512 1.7150462 0.84466779
-1.2766913 1.6799154 0.88640922
-1.3634518 1.6921225 0.90808117
-1.4252782 1.7180611 0.92384148
-1.4871646 1.7422889 0.93958622
-0.38579023 1.6747031 0.67046726
-0.52014858 1.6879671 0.70395315
-0.60159439 1.7236711 0.72474849
-0.69180757 1.7523532 0.74758995
-0.82471979 1.7545022 0.78051925
-1.0244513 1.7130736 0.82920456
-1.1966237 1.6802479 0.87122482
-1.3003436 1.6835498 0.89695489
-1.3704627 1.7051228 0.91469949
-1.4323609 1.7302046 0.93047237
-0.44007933 1.6734673 0.69002765
-0.53892237 1.7017828 0.71504056
-0.61162621 1.7406627 0.7337662
-0.7103768 1.7633834 0.75865781
-0.86844528 1.7491983 0.79759324
-1.1008902 1.6849489 0.85406816
-1.2217054 1.6797943 0.88393521
-1.3001727 1.6973039 0.90371227
-1.3702246 1.7179511 0.9214595
-1.4240098 1.7477816 0.93533933
-0.28953803 1.6835794 0.66330492
-0.45910451 1.67996 0.70533264
-0.52294117 1.7242593 0.72196347
-0.62174034 1.7483362 0.74691641
-0.74596429 1.7550956 0.77787578
-0.94562739 1.7136647 0.82671452
-1.1345028 1.670702 0.87285137
-1.2131021 1.6893594 0.89269888
-1.2750512 1.7164494 0.90856439
-1.3533303 1.7307986 0.92825806
-0.35405856 1.6787118 0.68642676
-0.47924143 1.6940218 0.71778619
-0.53451133 1.7416512 0.73235303
-0.63330317 1.7643553 0.75728971
-0.7913999 1.7501422 0.7963044
-1.0322738 1.680847 0.85491031
-1.1446958 1.6806723 0.88283205
-1.2149484 1.703457 0.90068883
-1.2851336 1.7242386 0.91849291
-1.3471346 1.7486143 0.93432677
-0.22039117 1.6846874 0.6629014
-0.3548069 1.6982179 0.69657451
-0.47115272 1.7163647 0.72583771
-0.5525189 1.7493175 0.74667066
-0.67671257 1.7560232 0.77768409
-0.86785519 1.7194376 0.82457185
-1.056764 1.6765479 0.87079459
-1.1354268 1.6953255 0.89070559
-1.2138629 1.7117918 0.91052085
-1.283909 1.7314837 0.92830729
-0.27858377 1.6798452 0.68523037
-0.38629219 1.7038764 0.71246988
-0.476394 1.7336329 0.73542953
-0.55786431 1.7653756 0.75627691
-0.70744497 1.7559443 0.7933445
-0.95678663 1.6816964 0.85409302
-1.0858848 1.6711767 0.88604665
-1.1394765 1.7042353 0.8999809
-1.2178345 1.7195417 0.91976625
-1.2878224 1.7381556 0.93752605
-0.13011192 1.698202 0.65393114
-0.29981571 1.6949415 0.69620252
-0.41606042 1.7128868 0.72552592
-0.50596172 1.7410424 0.74846196
-0.62142038 1.7521725 0.77746904
-0.78703094 1.7301519 0.81839126
-1.0011979 1.6722746 0.87078404
-1.0963455 1.6804299 0.89467543
-1.1416742 1.7179189 0.90666866
-1.2199099 1.7322185 0.92645413
-0.21454749 1.6847544 0.6800884
-0.31357798 1.7132984 0.70532858
-0.42981333 1.7297306 0.73464787
-0.51119995 1.7612984 0.75553685
-0.66067344 1.7516836 0.79269516
-0.90145725 1.6822382 0.85159183
-1.0138613 1.6819936 0.8796618
-1.1006237 1.6941359 0.90155071
-1.1624767 1.7200257 0.91746432
-1.2243969 1.7442185 0.93336272
-0.07031142 1.6903938 0.65386057
-0.23108196 1.6911111 0.69413388
-0.31245387 1.7267451 0.71514612
-0.43708014 1.7368829 0.74653924
-0.54390979 1.752625 0.77357632
-0.7095046 1.7305896 0.81466287
-0.92363614 1.6727037 0.86727244
-1.0104893 1.6860757 0.88926959
-1.0969396 1.6968396 0.91111916
-1.1423728 1.7326318 0.92313832
-1.1561482 1.7899613 0.92761135
-0.15779877 1.6771643 0.67908973
-0.2479232 1.7097796 0.70225912
-0.34672996 1.7351345 0.72748023
-0.45391831 1.7527653 0.75467211
-0.58617854 1.7525349 0.78784615
-0.83530372 1.678086 0.84905308
-0.94758743 1.6776848 0.87721395
-1.0342351 1.6896836 0.89915979
-1.0959829 1.7154267 0.91509742
-1.1497254 1.745059 0.92909372
-0.080986202 1.6789758 0.67691344
-0.17980495 1.7071809 0.70224088
-0.26984015 1.7369041 0.725384
-0.36840361 1.7592069 0.7505483
-0.51769483 1.7493991 0.78792441
-0.75823033 1.6797432 0.84723443
-0.87046349 1.6793166 0.87545556
-0.95706725 1.6912881 0.89744323
-1.0269303 1.711562 0.91536307
-1.0966678 1.7298543 0.93321741
0.076944619 1.7014128 0.64464509
-0.10148936 1.6937822 0.68939096
-0.19158615 1.7249362 0.71256959
-0.29028204 1.7487476 0.73779023
-0.39727983 1.7647673 0.7649706
-0.58838743 1.728207 0.81242406
-0.7940107 1.6751845 0.86325556
-0.88087904 1.6885394 0.88533056
-0.95914334 1.7046586 0.90528953
-1.029018 1.7240107 0.92319268
-1.0907327 1.7470444 0.93910569
-0.031317912 1.6796621 0.67631155
-0.13017966 1.707865 0.70164639
-0.22025605 1.7375784 0.72479624
-0.31886259 1.759879 0.7499699
-0.46818674 1.7500561 0.78737235
-0.70874923 1.6803876 0.84673858
-0.82101667 1.6799533 0.87497723
-0.90766352 1.6919225 0.89697516
-0.97756946 1.7121941 0.91489959
-1.0473517 1.7304758 0.93275958
0.1397621 1.7060593 0.64213556
-0.04747114 1.6942688 0.68906319
-0.14622197 1.7209507 0.7143628
-0.23619063 1.749221 0.73747873
-0.34315374 1.7652416 0.76467037
-0.55958891 1.7138811 0.81829953
-0.73979217 1.6756362 0.86303008
-0.8349126 1.6837566 0.88711447
-0.90485543 1.7050962 0.905083
-0.97469521 1.7244489 0.92299169
-1.0443869 1.7418097 0.94083148
0.28973541 1.7151158 0.6140874
0.075337663 1.6938864 0.66778338
-0.049867921 1.7093848 0.69958907
-0.13988766 1.7390888 0.72275335
-0.24700683 1.7566762 0.75003737
-0.37918365 1.7563995 0.78335196
-0.62813854 1.6818453 0.84491968
-0.74866563 1.676247 0.87521863
-0.82692116 1.693359 0.89522439
-0.89676672 1.713622 0.91316247
-0.95843166 1.7375005 0.92909443
0.22227016 1.7121733 0.63657981
0.034947637 1.7005147 0.68364584
-0.081304096 1.7184039 0.71325064
-0.16262418 1.7511303 0.73427802
-0.27815896 1.7623534 0.76359963
-0.47760174 1.7206701 0.81325883
-0.67464209 1.6723845 0.86220938
-0.76142609 1.6855643 0.88431269
-0.83960903 1.7015232 0.90428901
-0.90940195 1.7207146 0.92220104
-0.96302563 1.7492602 0.93618053
0.34142566 1.7033817 0.61768794
0.1360651 1.6858938 0.66931021
0.037195899 1.714239 0.69474149
-0.078850381 1.7304578 0.72432506
-0.17722967 1.7524295 0.74953687
-0.29232448 1.7616912 0.77877289
-0.55814141 1.6772656 0.84463948
-0.67024606 1.6766614 0.87297046
-0.75673759 1.6884655 0.89502299
-0.82648861 1.7085789 0.91297609
-0.88805699 1.7323005 0.92891753
-0.93371928 1.7658173 0.94099247
0.33294728 1.72876 0.62473708
0.10155626 1.696184 0.68276781
0.0027780265 1.7228466 0.70816863
-0.095834702 1.7464923 0.73348039
-0.21127515 1.7575592 0.76285625
-0.3514351 1.7502371 0.79820281
-0.59915346 1.6723822 0.85967296
-0.68592536 1.6855667 0.88183218
-0.76409781 1.7015216 0.90185785
-0.82577795 1.7262462 0.91784853
-0.8955012 1.7435937 0.93576145
0.40205002 1.7026323 0.614663
0.21432143 1.6936345 0.66209322
0.097875759 1.7135324 0.69191051
-0.00084070727 1.7388519 0.71732199
-0.099354275 1.7611477 0.74263692
-0.23157105 1.761032 0.77614528
-0.47212398 1.691664 0.83603382
-0.60944188 1.676069 0.8705982
-0.69591182 1.6878878 0.89270407
-0.7656464 1.7080065 0.91069895
-0.82719982 1.7317406 0.92667627
-0.87284839 1.7652614 0.93877476
0.39347786 1.7184623 0.6258558
0.20611344 1.7071952 0.67322606
0.089799292 1.7254519 0.70302272
-0.0088272914 1.7492852 0.7284174
-0.12428222 1.7605556 0.75789106
-0.27291435 1.7485169 0.7954284
-0.52895522 1.6656922 0.85913372
-0.60729909 1.6839812 0.87930322
-0.68541265 1.6999754 0.89937884
-0.74703693 1.7247224 0.91540527
-0.81670278 1.7421007 0.93336064
0.4902893 1.7090763 0.60728329
0.26722422 1.6835732 0.66354591
0.17709963 1.7163597 0.68692994
0.069650427 1.7373395 0.71453738
-0.028870694 1.7596741 0.73989803
-0.17808944 1.7499185 0.77764928
-0.35119647 1.720343 0.82117158
-0.54732203 1.6696585 0.87022078
-0.62548 1.686656 0.89033365
-0.68708003 1.7122571 0.90637189
-0.74873656 1.7361641 0.92239928
-0.80245084 1.7641096 0.93647087
0.46168953 1.7254043 0.61879945
0.23033966 1.6930271 0.67711234
0.14898266 1.728694 0.69831383
0.041648071 1.7481064 0.72587937
-0.065296069 1.764201 0.75329602
-0.23094492 1.7425345 0.79507625
-0.43671876 1.6901008 0.84660035
-0.56521875 1.6778409 0.87908065
-0.63507658 1.6990863 0.89715159
-0.69672167 1.7238522 0.91318911
-0.75840813 1.7469274 0.92921066
0.5477277 1.7000387 0.60877413
0.34239364 1.6827641 0.66075206
0.23481236 1.7068318 0.68845749
0.16211669 1.7456995 0.7074998
0.046284452 1.7590121 0.73715246
-0.085946985 1.7590144 0.77078688
-0.28446826 1.714835 0.8206566
-0.4555378 1.6795254 0.8636716
-0.55859822 1.6809837 0.88990945
-0.62011445 1.7064707 0.90592235
-0.68168545 1.7302562 0.9219256
-0.7273559 1.7638189 0.93402225
0.46238554 1.6888648 0.63557935
0.29309008 1.6852157 0.67863333
0.20324834 1.7161367 0.70193857
0.1306513 1.7535667 0.72094452
0.023689421 1.7698392 0.74840873
-0.15042442 1.7434419 0.79238224
-0.34775287 1.6961268 0.84197831
-0.47627622 1.6840445 0.87454504
-0.5707438 1.6893482 0.89868134
-0.62405562 1.7193593 0.91267991
-0.66957712 1.7536246 0.92475522
0.39791346 1.6842027 0.65861493
0.28161082 1.7038859 0.68850428
0.20898898 1.7425824 0.70752662
0.11038488 1.7651186 0.7329464
-0.021917403 1.7652707 0.76664919
-0.21208248 1.7262268 0.81456131
-0.39995405 1.6809089 0.86180514
-0.48652619 1.6929498 0.8840242
-0.58081323 1.6969528 0.90809906
-0.63414603 1.7260319 0.9220826
-0.64789063 1.7823814 0.92635012
0.52459401 1.6816188 0.63779873
0.37298056 1.6862251 0.67655081
0.283142 1.7171246 0.69990051
0.21054313 1.7545395 0.71894103
0.10358566 1.7707832 0.74646133
-0.062053479 1.7492663 0.78844088
-0.28453422 1.6868367 0.84436822
-0.38802984 1.6900967 0.8708322
-0.4743858 1.7008936 0.89302683
-0.56027889 1.7091124 0.91506779
-0.59761655 1.7487451 0.92514712
-0.27174485 2.0545869 0.84616297
0.46264389 1.6809242 0.65818071
0.35514608 1.7047946 0.68596637
0.26522443 1.734395 0.70934081
0.18392435 1.7659851 0.73054123
0.043150142 1.7612401 0.76643986
-0.14689381 1.7219852 0.81445539
-0.32631612 1.6816131 0.85974199
-0.42111748 1.6883256 0.88405633
-0.49087173 1.7084898 0.90215451
-0.56854457 1.7210712 0.92217422
-0.56629902 1.7887423 0.92252839
-0.29058245 2.0627236 0.85582787
0.57851487 1.6831739 0.63564217
0.41819063 1.6834166 0.67666709
0.33714521 1.7185863 0.69789964
0.25596705 1.751353 0.71913391
0.17471442 1.7817225 0.74035358
-0.024812758 1.7407345 0.79084337
-0.22194538 1.6931425 0.84063268
-0.35031152 1.6808269 0.87331927
-0.42007586 1.7020425 0.89147937
-0.48164141 1.7267904 0.90759087
-0.50323296 1.7781674 0.91384506
-0.2965484 1.9977469 0.86401927
-0.29952013 2.0705311 0.86580247
0.52045643 1.6825778 0.65683842
0.40424785 1.7020127 0.68684864
0.31440312 1.7314204 0.71024936
0.23318391 1.7628187 0.73147154
0.11797417 1.7724174 0.76109314
-0.11422042 1.7083685 0.81964076
-0.27670714 1.6777734 0.86081052
-0.35494772 1.6949046 0.8810764
-0.4247838 1.7151842 0.8992362
-0.46230543 1.7558509 0.90940547
-0.34136897 1.910473 0.88058639
-0.30346194 2.0111258 0.87227446
0.65339869 1.6851907 0.63409221
0.49304408 1.6853498 0.67519355
0.41193134 1.7204812 0.6964702
0.33069512 1.7532037 0.71774727
0.20675759 1.7596507 0.749605
0.066732883 1.7523196 0.78539687
-0.16401957 1.6846042 0.84360856
-0.26742879 1.6876208 0.87016135
-0.33733976 1.7089598 0.88838267
-0.40714803 1.7282964 0.90655017
-0.31684268 1.859036 0.88521808
-0.29341966 1.9470229 0.88043696
-0.27997994 2.0304403 0.87815177
0.58203173 1.6807624 0.6575135
0.48333213 1.7087638 0.68320763
0.38476953 1.733734 0.70882589
0.31210613 1.7697936 0.72795606
0.17137106 1.7649125 0.76397848
-0.026995432 1.7204759 0.81423575
-0.21456185 1.6746181 0.86170775
-0.29271361 1.6915591 0.88198525
-0.34619024 1.7225633 0.89612985
-0.36773592 1.7745634 0.90237427
-0.3028166 1.8894787 0.8873105
-0.30382755 1.9601597 0.88854569
-0.29868138 2.0373914 0.88829148
0.72191459 1.6837026 0.63704121
0.57911187 1.6922482 0.67375827
0.49788749 1.7274946 0.69506174
0.39932737 1.7510827 0.72064739
0.27544096 1.757306 0.75248682
0.16080423 1.76455 0.78197157
-0.09517476 1.6817632 0.84644902
-0.19852145 1.6845744 0.87298083
-0.26837724 1.705722 0.89118159
-0.3300395 1.7304084 0.90732849
-0.29579243 1.8214877 0.89980328
-0.27175993 1.9084855 0.89483988
-0.28889504 1.9670918 0.90003812
-0.28412473 2.0439451 0.89987129
0.78242457 1.6902196 0.63824767
0.6220302 1.6902177 0.67926776
0.549532 1.7297387 0.6983484
0.45095184 1.7532732 0.72388244
0.32705158 1.7594362 0.75565642
0.17863658 1.7468762 0.79344398
-0.051927917 1.678628 0.85148543
-0.1469312 1.6864802 0.87589365
-0.20862436 1.7129805 0.89203829
-0.27847776 1.7322503 0.91017222
-0.3002184 1.7835917 0.91643876
-0.29133812 1.8579565 0.91518432
-0.29200557 1.9272094 0.91630346
-0.30194968 1.9908953 0.91971833
-0.2980946 2.0672677 0.91977715
0.7241683 1.6773665 0.66969961
0.63430887 1.7093529 0.69307196
0.54444587 1.7386209 0.71640933
0.45463574 1.7651836 0.73969626
0.3055819 1.7549934 0.77760571
0.14948185 1.7349818 0.81718284
-0.046547331 1.6840703 0.86653209
-0.13301365 1.6957684 0.88877016
-0.19463535 1.7212557 0.90485424
-0.25630984 1.7450498 0.9209286
-0.26238018 1.8074017 0.92333347
-0.26980326 1.870066 0.92608672
-0.28632975 1.9269602 0.93108588
-0.28109276 2.0023358 0.93077844
-0.28519598 2.0721607 0.93277961
0.8664996 1.6967733 0.64057481
0.68849224 1.6882089 0.68584174
0.62470782 1.7320248 0.70269197
0.52609402 1.7555176 0.72815061
0.39363682 1.756844 0.76193941
0.2199579 1.7292309 0.80585295
0.031490017 1.6857467 0.85332674
-0.071895234 1.6884662 0.87972653
-0.1499781 1.704163 0.89984912
-0.21159028 1.7286464 0.9158904
-0.24126028 1.7741531 0.92407078
-0.2559129 1.8307695 0.92856824
-0.27171966 1.8873914 0.9333607
-0.2886807 1.9439873 0.93844765
-0.29162866 2.0130291 0.94012666
0.94964939 1.702975 0.6396296
0.76285005 1.6901739 0.68706954
0.68172687 1.7250003 0.70821261
0.59188205 1.752779 0.73148477
0.4680531 1.7586883 0.76312828
0.27753383 1.7211261 0.81119323
0.10597942 1.6874584 0.85447866
0.010886929 1.6953815 0.8788287
-0.075438082 1.7057998 0.90097809
-0.12894872 1.7357957 0.91502339
-0.18267539 1.7643902 0.92910576
-0.17344543 1.8381922 0.92774028
-0.1893411 1.8949503 0.93255258
-0.26024827 1.9089296 0.95082086
-0.27015579 1.9709032 0.95417637
-0.27394748 2.0394652 0.9560588
0.8626039 1.6856724 0.67003566
0.73776042 1.7001256 0.70204222
0.66533953 1.7379892 0.72099763
0.57555467 1.7643287 0.74422771
0.4350321 1.7587526 0.77997315
0.18656401 1.6833732 0.84231895
0.099499978 1.697915 0.86470497
0.0045919959 1.7045223 0.88898629
-0.081561089 1.7137083 0.91107166
-0.14309531 1.7371649 0.92706919
-0.14905317 1.7992277 0.92940462
-0.14066808 1.8733975 0.92824268
-0.18049431 1.912165 0.93890607
-0.25906596 1.9191786 0.95903265
-0.26178035 1.9870963 0.96061623
-0.25864315 2.0619333 0.9607985
1.0024127 1.705406 0.63934433
0.82434702 1.6968675 0.68463081
0.70841736 1.7138659 0.71440786
0.64455783 1.7550796 0.73122418
0.51218885 1.7561439 0.7649886
0.3470535 1.7331966 0.80679613
0.14192477 1.6793664 0.85840285
0.071776107 1.7026964 0.87659603
-0.031015867 1.7024362 0.90280515
-0.084467165 1.732273 0.91682565
-0.14612268 1.7550102 0.93284523
-0.15253563 1.8168724 0.93528575
-0.14471334 1.890973 0.93425369
-0.20785569 1.9108968 0.95061713
-0.25574049 1.9416329 0.96322984
-0.26653582 2.0031314 0.96678174
0.95431918 1.6968616 0.6652168
0.82931465 1.7115607 0.6972931
0.70490777 1.7222918 0.72916788
0.64963204 1.766861 0.74384326
0.50062734 1.7563285 0.78172022
0.26067057 1.6857033 0.84202456
0.14866789 1.6846672 0.87058693
0.086880848 1.7120785 0.88670599
-0.0075049521 1.7158945 0.91083848
-0.069067813 1.7393211 0.92684847
-0.11476064 1.7725719 0.93893903
-0.12946281 1.8283277 0.94341022
-0.12982568 1.8961736 0.9443804
-0.18519753 1.9212736 0.95883471
-0.23314746 1.9512876 0.97145706
-0.22199705 2.0317731 0.96965176
0.9918927 1.6899791 0.66784143
0.8844642 1.7131662 0.69558442
0.79459757 1.7421427 0.71891439
0.67058164 1.7495106 0.75069749
0.55581468 1.7578366 0.78012973
0.3159079 1.6871481 0.84053797
0.20392323 1.6860783 0.86914295
0.11749765 1.6974956 0.89137655
0.064019531 1.7282141 0.90543449
-0.013785136 1.7406703 0.92547858
-0.13688055 1.7824267 0.95747137
-0.13644914 1.849146 0.95821071
-0.15282904 1.9040465 0.96309501
-0.19292685 1.9399551 0.97380149
-0.18900152 2.0137105 0.97373462
0.97459894 1.6962119 0.68360853
0.89347041 1.7309524 0.70480925
0.78644967 1.7493509 0.73243231
0.65430617 1.750024 0.76626164
0.5231452 1.7464888 0.79978687
0.29292849 1.6775161 0.85784316
0.20638934 1.6901488 0.88015747
0.12843464 1.7055869 0.90030915
0.091164723 1.7464837 0.91036934
-0.10198627 1.804409 0.96056026
-0.10977525 1.8650148 0.9633233
-0.1340636 1.9133723 0.97015423
-0.15179455 1.9678005 0.97538573
-0.14857154 2.0417295 0.97549576
1.065253 1.6919167 0.66409612
0.94913119 1.7106572 0.69408381
0.8507219 1.7348841 0.71960068
0.76108122 1.7608284 0.74289078
0.62076485 1.7547959 0.77877969
0.39778644 1.6939566 0.83518881
0.27743569 1.6878339 0.86596137
0.18281031 1.6938984 0.89029121
0.11318219 1.7135116 0.90837967
0.067777939 1.7480088 0.92044139
-0.14199641 1.9226679 0.9763571
-0.14518778 1.9895771 0.97799319
1.1257637 1.6853206 0.66259724
1.01855 1.7081248 0.6905067
0.92026913 1.7321582 0.71613175
0.84785676 1.7673665 0.73522842
0.69060582 1.7516694 0.77556551
0.47621614 1.6956325 0.83013582
0.33934736 1.6790934 0.86521393
0.25316697 1.6901571 0.88756824
0.19179447 1.7150778 0.90369868
0.11433081 1.727053 0.92381787
1.556631 1.8389267 0.55870283
1.0970755 1.6959323 0.6755954
0.99869972 1.7214603 0.70130092
0.91768169 1.7532785 0.72260201
0.80259919 1.7634796 0.75243604
0.62922108 1.7353573 0.79685587
0.41609085 1.6759889 0.8511622
0.32140034 1.6831586 0.87569833
0.25180364 1.7036549 0.89391971
0.19039218 1.727711 0.91007119
0.12098865 1.7443804 0.92819732
1.1862086 1.6910602 0.65614277
1.070213 1.7095788 0.68635362
0.98053741 1.7381674 0.70987952
0.89093709 1.7640562 0.733356
0.75916088 1.7628304 0.76741308
0.51949483 1.6919385 0.82853788
0.39101076 1.6804072 0.8616249
0.31301904 1.6967849 0.88199008
0.24341306 1.7163606 0.90022349
0.198017 1.7508231 0.91237605
0.12846152 1.7668608 0.93055743
1.5345843 1.7941949 0.57988536
1.1632063 1.6928624 0.67478681
1.0735505 1.7227283 0.69833207
0.98393595 1.7498864 0.72183585
0.87742627 1.764729 0.74956852
0.69563133 1.7316376 0.79622072
0.49093825 1.6772195 0.84855288
0.39623758 1.6843728 0.87314236
0.32662061 1.7048651 0.89139807
0.25712684 1.7233678 0.90959984
0.20374055 1.7512925 0.92374158
1.497057 1.7497902 0.60262114
1.2225572 1.694476 0.67309386
1.132903 1.7243344 0.69664121
1.0432884 1.7514925 0.72014689
0.93678355 1.7663289 0.74789327
0.78026807 1.7481003 0.78822696
0.54200691 1.6736772 0.84911287
0.45565021 1.6859434 0.87161559
0.37787759 1.7010218 0.89192688
0.3165428 1.7249237 0.90807825
0.24721719 1.7414473 0.92621756
1.5223714 1.7306229 0.61173773
1.2831893 1.6918478 0.6733526
1.1936119 1.7215362 0.69689727
1.1040794 1.7485178 0.72040159
1.0061606 1.7679976 0.74600238
0.84966415 1.7497441 0.78639662
0.61145097 1.6752808 0.84739256
0.52510214 1.687526 0.86991996
0.43917826 1.6971844 0.89230913
0.37793747 1.720928 0.90844697
0.31667933 1.7429947 0.92457175
1.6091888 1.7358539 0.60571945
1.3613015 1.6928393 0.66977143
1.2544628 1.7135077 0.69779772
1.1822877 1.749474 0.71696907
1.0674239 1.7593089 0.74697036
0.93640351 1.7556118 0.78103453
0.73984945 1.7068185 0.83167708
0.59533018 1.6830941 0.86904407
0.50955099 1.6925848 0.89147872
0.45650068 1.7217362 0.9056049
0.45900825 1.7893993 0.90568191
1.4407071 1.6794256 0.65471643
1.3424488 1.7061027 0.68061459
1.2529658 1.7343324 0.70424145
1.163569 1.759865 0.72781932
1.048952 1.768039 0.7577889
0.87644941 1.7373475 0.80243737
0.66452813 1.6750443 0.85703164
0.58675945 1.6910857 0.87748075
0.50927877 1.7048383 0.89783394
0.44815251 1.7275822 0.91401631
0.39494988 1.7544211 0.92817789
1.6694354 1.7402153 0.59861588
1.4040548 1.6886733 0.66738319
1.3232393 1.7226883 0.6888473
1.2251718 1.7449896 0.71469516
1.1188802 1.759482 0.7426092
0.9962737 1.7607437 0.77464724
0.79131854 1.7069958 0.82761729
0.62208933 1.6674814 0.87140876
0.56101513 1.6927594 0.88762975
0.49989522 1.7163459 0.90384614
0.47060946 1.7610564 0.91196811
1.8440684 1.7555014 0.56436133
1.516131 1.6784612 0.6493929
1.3918229 1.6918935 0.68206596
1.319804 1.7288415 0.70129734
1.2304939 1.7542477 0.72493619
1.1244233 1.7671833 0.75283349
0.96031171 1.7415806 0.79552603
0.7648896 1.6898719 0.84614486
0.62949532 1.6690369 0.88137174
0.58479756 1.704152 0.89343846
0.52367979 1.7269154 0.90967625
0.4546482 1.7422249 0.92790717
1.7706201 1.7465664 0.58853954
1.4703034 1.6781268 0.66659594
1.3724316 1.70288 0.69252074
1.3004919 1.7385756 0.71176016
1.2028705 1.7577798 0.73756498
1.0887699 1.7640771 0.76756209
0.88382131 1.710597 0.82077503
0.73106843 1.6818433 0.86055452
0.62906277 1.6805718 0.8873049
0.57627219 1.7094569 0.90145916
0.54717559 1.7540396 0.90955842
1.5824095 1.6811037 0.64279252
1.4493628 1.6903561 0.67780352
1.3687571 1.7227734 0.69928157
1.288084 1.7527955 0.72075498
1.1904867 1.7706863 0.74654901
1.0179394 1.7402925 0.7915433
0.82252651 1.6886932 0.84232974
0.71993017 1.6892556 0.86927027
0.6262542 1.6921266 0.89389032
0.56533754 1.7146317 0.91010636
0.57567275 1.7873623 0.90811485
1.7720224 1.70814 0.60373211
1.5595994 1.6818067 0.65935129
1.4530047 1.702273 0.68757951
1.3553406 1.7240683 0.71347171
1.3004249 1.7668766 0.72831857
1.1609232 1.7586755 0.76493686
0.98936331 1.7255702 0.80975628
0.81162536 1.6815844 0.85610098
0.73406452 1.6965717 0.87664789
0.65681237 1.709283 0.89709306
0.61178082 1.7424991 0.90925628
0.55065119 1.7629368 0.92553478
1.6832091 1.69341 0.63069552
1.5239178 1.6899552 0.67260152
1.4347271 1.7178347 0.69633323
1.3456243 1.7430252 0.72001868
1.2566696 1.7655253 0.74364191
1.1093413 1.7501518 0.78229463
0.90550369 1.6937662 0.83545876
0.79464799 1.6892006 0.86460888
0.72531193 1.7085333 0.88304055
0.66413248 1.731504 0.8993575
0.57921475 1.7355013 0.92175794
1.7980326 1.6945972 0.60626346
1.6120548 1.6808841 0.6551891
1.5055133 1.7013962 0.68347263
1.4079007 1.7232291 0.70941544
1.3360476 1.756457 0.72866678
1.2219926 1.7628636 0.75881028
1.0503988 1.7299826 0.80378354
0.85613823 1.6757239 0.8545475
0.77871472 1.6905957 0.87510997
0.71771687 1.7142773 0.89141953
0.66466999 1.7419651 0.90566838
0.59571928 1.7565982 0.92399645
1.7873973 1.7049806 0.61919636
1.6018827 1.6888335 0.66805649
1.5127488 1.7167596 0.69184363
1.4151665 1.7372655 0.71779913
1.3178897 1.7547797 0.74364728
1.1958905 1.7542462 0.77587259
0.99202013 1.6981026 0.82924855
0.86473101 1.6830872 0.8627491
0.79553211 1.7023044 0.88120013
0.73449939 1.7251538 0.89752847
0.68929762 1.757844 0.90975749
1.8963284 1.7013515 0.59778023
1.7014625 1.6837002 0.64914197
1.5861746 1.6999362 0.67975801
1.4885373 1.7218118 0.70575619
1.4081649 1.7502817 0.7272473
1.3025763 1.7615311 0.75525868
1.1392798 1.7338318 0.79819798
0.94489574 1.6798075 0.84913403
0.8592006 1.689461 0.8718766
0.79817367 1.7131758 0.88821751
0.72916782 1.729517 0.90660608
1.8955818 1.728349 0.60268557
1.6574934 1.686814 0.66532928
1.5683471 1.7147852 0.68914843
1.4707558 1.7353371 0.71514279
1.3819269 1.7577753 0.7388345
1.2681969 1.76247 0.76896638
1.0558408 1.7015626 0.82464874
0.92844146 1.6867589 0.85823655
0.851035 1.7006937 0.87883848
0.78998482 1.7235788 0.89518732
0.72894329 1.7447774 0.91152167
1.7780795 1.6811557 0.64648908
1.6627971 1.6974572 0.67715108
1.5651696 1.719399 0.7031858
1.4848055 1.747911 0.72470427
1.3708081 1.7542875 0.75494665
1.2242409 1.7367268 0.79361594
1.0215068 1.677727 0.84681743
0.93581218 1.6874366 0.86959523
0.8586663 1.7001134 0.89013416
0.80578315 1.7275654 0.90437043
1.9894441 1.7294757 0.59771496
1.7426612 1.6838753 0.66275692
1.6536162 1.711911 0.68659908
1.5561148 1.7325402 0.71262228
1.4673797 1.7550411 0.73633856
1.3453652 1.7548062 0.76869148
1.149719 1.7042382 0.82014889
1.0059057 1.679052 0.85807645
0.93678665 1.6983525 0.87657291
0.86781514 1.715677 0.89501351
0.80695325 1.7367852 0.91133547
1.8449675 1.6832544 0.64174032
1.7209698 1.6953179 0.67471093
1.6233546 1.7173183 0.70076716
1.5430069 1.7458895 0.72229683
1.4374324 1.757278 0.75038093
1.2991089 1.7450495 0.78696227
1.0879358 1.6812418 0.8424542
0.99400395 1.6857724 0.86739969
0.93299282 1.7095624 0.88376874
0.8639949 1.725993 0.90219718
1.9719949 1.6809069 0.61972523
1.8215798 1.682084 0.65964735
1.7325299 1.7101889 0.68348706
1.6350231 1.7308879 0.70951641
1.5462791 1.7534573 0.73323482
1.4242452 1.7533286 0.76562214
1.2617236 1.7235385 0.80853975
1.10113 1.6884419 0.85090834
1.0074848 1.6917365 0.87579268
0.96264857 1.7257688 0.88794822
0.87781936 1.7299724 0.91050023
1.9035587 1.6730467 0.64312208
1.7970356 1.6938337 0.67152667
1.69944 1.7159171 0.69757193
1.6191163 1.7445562 0.71907866
1.5219719 1.7609652 0.7449674
1.3585708 1.7337503 0.78814691
1.1723003 1.6855135 0.83725649
1.0701333 1.6848891 0.86436743
1.0091422 1.7087305 0.88071555
0.94813138 1.7308868 0.89705729
1.8688313 1.6769196 0.65956897
1.7798861 1.704923 0.68337172
1.6995659 1.7349218 0.70489842
1.6023132 1.7528374 0.73084474
1.4803029 1.7527698 0.76324928
1.3095089 1.7179196 0.80838895
1.1490225 1.6827635 0.85079169
1.063603 1.6914079 0.873541
1.0027599 1.7142713 0.88985753
0.93399471 1.72972 0.90823001
1.9801213 1.6810555 0.63673484
1.8561494 1.6932672 0.66972989
1.7585613 1.715384 0.69578063
1.6782433 1.744048 0.71728623
1.5726892 1.7555597 0.74538827
1.4177088 1.7333328 0.78640884
1.2396858 1.6903815 0.8334229
1.1374326 1.6899419 0.86057878
1.068288 1.7084271 0.8790589
1.0072848 1.730601 0.89539975
0.96205354 1.7627183 0.90761459
1.9222986 1.6627545 0.66391796
1.8680096 1.7084813 0.67863232
1.7704965 1.7292659 0.70468944
1.6902025 1.7567586 0.72620946
1.5680732 1.7568765 0.75868887
1.3391173 1.6861593 0.8191452
1.2365316 1.6872607 0.84643477
1.1509826 1.696072 0.86924344
1.0980235 1.724692 0.88350582
1.0211015 1.7347137 0.90402764
2.0805464 1.6926599 0.62676799
1.9131024 1.6830621 0.67126894
1.8328447 1.7141285 0.69281507
1.7525493 1.7428226 0.71435851
1.6554321 1.759287 0.74030399
1.4920528 1.7321835 0.78362209
1.2892996 1.6736073 0.83722949
1.2118045 1.6888747 0.8579495
1.134612 1.701857 0.87857711
1.0896629 1.7352345 0.89074534
2.0489058 1.6880283 0.64771008
1.8993849 1.6847773 0.68751091
1.844959 1.7282895 0.70226169
1.764675 1.755801 0.72380763
1.6425472 1.7559521 0.75633615
1.4218813 1.6904531 0.81472611
1.2946035 1.6758347 0.84854293
1.2254614 1.6952721 0.86707598
1.1644813 1.7183162 0.88345599
1.1035039 1.7396806 0.89982688
2.1687427 1.6959369 0.62201524
2.0099413 1.6910182 0.66431928
1.9038602 1.7085745 0.69270307
1.8322037 1.7419063 0.71200341
1.7351466 1.7584095 0.73797786
1.5801613 1.7364298 0.77917147
1.3691311 1.6728492 0.83506465
1.2835329 1.6827736 0.8579495
1.2306905 1.7121913 0.87221777
1.1617001 1.7288851 0.89071929
1.1322933 1.7726394 0.89882261
2.0954614 1.6829761 0.64886141
2.0063434 1.7113651 0.67277098
1.8916821 1.722971 0.70339453
1.8114796 1.7503603 0.72492379
1.6978147 1.7553825 0.75524598
1.4771411 1.6899381 0.81368613
1.3580666 1.6806486 0.84537107
1.2726122 1.6893576 0.86819869
1.2277732 1.7234519 0.8803463
1.1667048 1.7449758 0.89674801
2.2425275 1.6908798 0.62540698
2.1097486 1.6991957 0.6608156
2.0120771 1.7217034 0.68695837
1.9061743 1.7364342 0.71525037
1.8007678 1.7478806 0.74339139
1.6625932 1.7357709 0.78012419
1.4515283 1.6722277 0.83597493
1.3659201 1.6821649 0.85883987
1.2888669 1.6950465 0.87944567
1.2679869 1.74528 0.88530481
1.1989021 1.7604513 0.90380192
2.1719973 1.6822644 0.65041023
2.0742488 1.7061275 0.67655468
1.9852773 1.7316756 0.70037591
1.8626021 1.7351614 0.73304337
1.7743064 1.7547344 0.75665206
1.553605 1.6893204 0.81502342
1.434516 1.6800498 0.84666818
1.349052 1.6887714 0.86946642
1.2961899 1.7172883 0.88369918
1.2589906 1.755872 0.89381927
2.2524893 1.6819508 0.65044677
2.1547825 1.7058235 0.67657781
2.0743883 1.7360724 0.69813746
1.9770533 1.7542524 0.72413993
1.8381965 1.7444723 0.76104087
1.6425771 1.6942189 0.81282544
1.5152268 1.6798184 0.84663963
1.4297987 1.6885561 0.86942792
1.3769724 1.7170734 0.88364905
1.3160319 1.7384695 0.89999062
1.2707901 1.7699329 0.91221088
2.4009461 1.7030512 0.61859661
2.2332904 1.6940558 0.66315651
2.1356745 1.7164261 0.6892491
2.0638337 1.750098 0.70854378
1.9497371 1.7571146 0.73894179
1.8030295 1.7402744 0.77789211
1.5835927 1.6717165 0.8359257
1.4979596 1.6816784 0.858769
1.4289505 1.7000937 0.87723416
1.368085 1.7221901 0.89355266
1.3308771 1.7600178 0.90365905
2.3038423 1.6817211 0.64947593
2.2060988 1.7056162 0.67560095
2.125668 1.7358717 0.69715196
2.0367563 1.7589126 0.72092336
1.9061575 1.7543082 0.75565201
1.6937351 1.6941077 0.81187624
1.5581431 1.674433 0.84786052
1.4727671 1.6830412 0.87062413
1.4199991 1.7114223 0.88480949
1.3591149 1.7326896 0.90111893
1.3922271 1.8227403 0.89275533
2.4417927 1.6943169 0.62218654
2.2829649 1.6894845 0.66443902
2.1940331 1.7163295 0.68824685
2.1222172 1.7500148 0.7075339
2.0165694 1.7619618 0.73571998
1.8614659 1.7402282 0.77690428
1.6420494 1.6717079 0.8349793
1.556446 1.681677 0.8578248
1.4793941 1.6945897 0.87841004
1.4186457 1.7165487 0.89469773
1.3736817 1.7484376 0.90683436
1.8029705 2.1416488 0.79449356
2.3853819 1.6812481 0.64728111
2.287698 1.7051733 0.67340571
2.1987891 1.730775 0.69720232
2.1184824 1.7585313 0.71871799
2.0046959 1.7639564 0.74905372
1.7921568 1.704132 0.80540776
1.6482381 1.6795182 0.8436417
1.5547166 1.6828598 0.86857623
1.5020068 1.7112625 0.8827498
1.4332526 1.7268243 0.90113991
1.4273767 1.7873769 0.90297812
2.5077891 1.6898247 0.62189788
2.3576589 1.689345 0.66188085
2.2686925 1.7162206 0.68568444
2.1968436 1.7499292 0.70495802
2.0911548 1.7619138 0.73315573
1.9443521 1.7453045 0.77219272
1.7165649 1.6717891 0.83257544
1.6309205 1.6817957 0.85543072
1.5538297 1.6947385 0.87602109
1.5010229 1.7223722 0.89020163
1.440163 1.7428284 0.90649801
1.6905785 1.999154 0.84081763
2.4676158 1.6818732 0.64444035
2.3613167 1.7012781 0.6728645
2.2724869 1.7267338 0.69665426
2.2007201 1.7591821 0.71591997
2.0785618 1.759626 0.74850672
1.841249 1.6842467 0.81152624
1.7305136 1.6802002 0.84105414
1.6369963 1.6835514 0.8660183
1.5842845 1.7119615 0.88019162
1.5234579 1.7332506 0.89650357
1.4939923 1.7763369 0.90453273
1.7111229 2.0111659 0.8474887
2.7578707 1.776301 0.57113183
2.4245291 1.6854824 0.65983671
2.3442304 1.716814 0.68139231
2.2723837 1.750524 0.70069844
2.166714 1.7625152 0.72896284
2.036607 1.7560273 0.76369017
1.800442 1.677605 0.82649523
1.6984016 1.6770312 0.85374999
1.6375477 1.7008425 0.87009019
1.5687028 1.7173185 0.88853878
1.5158291 1.7434219 0.90275753
1.7039412 1.9522457 0.85324097
1.7090989 2.0285361 0.85213023
2.728719 1.7328341 0.59078807
2.4827178 1.6849689 0.65650028
2.3938622 1.7116936 0.680399
2.3306165 1.7500169 0.69748062
2.2165539 1.7570865 0.72805989
2.0948942 1.7555228 0.76064312
1.8587714 1.6771075 0.82360673
1.756757 1.676542 0.85093433
1.6959194 1.7003587 0.86732203
1.6270924 1.7168328 0.88582313
1.5742314 1.7429404 0.90008253
1.6923357 1.8983048 0.86901802
1.6907429 1.9672589 0.86970109
1.7178581 2.0615835 0.86278373
2.7773252 1.6921961 0.59074306
2.609319 1.6856025 0.63574708
2.5029576 1.7051698 0.66432947
2.4140515 1.7307841 0.68825591
2.3252873 1.7537144 0.71213591
2.2116013 1.7590036 0.74262995
2.0489507 1.7298983 0.78612012
1.8472059 1.6690286 0.83997226
1.7700952 1.6829679 0.86069864
1.7093565 1.7057952 0.87707162
1.6565456 1.7326688 0.89133418
1.6114084 1.764024 0.90355772
1.7204913 1.9144354 0.87488532
1.7108074 1.9770911 0.87772024
1.7824808 2.1090786 0.85900509
2.8208385 1.7409552 0.58565325
2.5746922 1.693418 0.65142596
2.4771085 1.7158554 0.67765743
2.3967884 1.744813 0.69928765
2.299644 1.7615736 0.72538018
2.1695671 1.7551039 0.76021188
1.9746797 1.7027731 0.81224167
1.815109 1.6654183 0.85486364
1.7625283 1.6944497 0.86906683
1.7017689 1.7164396 0.88543361
1.6489114 1.7425482 0.89969981
1.6892452 1.8385327 0.88925076
1.6963432 1.9121664 0.88762569
1.6941047 1.9803969 0.8884815
1.6977654 2.0554595 0.88778329
2.8650987 1.6956741 0.5887782
2.6796031 1.6805201 0.63840568
2.5905313 1.7090002 0.66237032
2.4929945 1.7300977 0.6885764
2.4126699 1.7578763 0.71019584
2.2988808 1.7633293 0.74069804
2.1195388 1.7241143 0.78859907
1.950659 1.6842754 0.83369434
1.8326932 1.6714885 0.86525309
1.7961849 1.7107749 0.87518203
1.73534 1.7320774 0.89156443
1.6823599 1.7575685 0.9058556
1.7219931 1.8537664 0.89559335
1.7133229 1.9150329 0.89814329
1.718353 1.9891031 0.89707047
1.7067682 2.0510957 0.90040433
2.9217167 1.6936723 0.58903831
2.7362175 1.6786029 0.63864118
2.6299138 1.6980726 0.66716802
2.5496228 1.7282612 0.68877012
2.4608476 1.751243 0.71261811
2.3555207 1.7615808 0.74085355
2.1844485 1.7275826 0.78653437
1.9990557 1.677393 0.83599633
1.9136356 1.6862382 0.85890061
1.8367515 1.6980937 0.87953115
1.7761061 1.719136 0.89584684
1.7389936 1.7560905 0.90591717
1.7168241 1.8042384 0.91202623
1.7242577 1.8766857 0.91029376
1.7073712 1.931098 0.91500878
1.7041944 1.9982928 0.91609806
1.7067549 2.0724938 0.91567564
2.9526641 1.7185444 0.59535682
2.7327585 1.6839839 0.65409011
2.6181393 1.697181 0.68481445
2.5551295 1.7352604 0.70181376
2.4665344 1.7568784 0.72560233
2.3364828 1.750555 0.7603935
2.1415617 1.6984507 0.81238896
1.9983116 1.6719811 0.85064709
1.9294636 1.6903735 0.86914551
1.868762 1.7124234 0.88547683
1.800198 1.7270188 0.90388781
1.7630285 1.763379 0.9139697
1.7637687 1.8292645 0.9140048
1.7402465 1.8770736 0.92047292
1.7232885 1.9309351 0.92520374
1.7273068 2.0041726 0.92438477
2.811707 1.6743474 0.63854319
2.7054093 1.6939275 0.66704065
2.6080444 1.7148516 0.69315517
2.5363731 1.7472606 0.71243203
2.4226632 1.7527229 0.74287021
2.259937 1.7238728 0.78631294
2.0909083 1.6844219 0.83140826
1.9971881 1.6882148 0.85649675
1.9282416 1.7058613 0.87500161
1.8674177 1.7272462 0.89134729
1.7987926 1.7411046 0.90975595
1.7536525 1.7710053 0.92193258
1.784556 1.8611475 0.91395521
1.7528661 1.9027652 0.92257041
1.7204789 1.9437885 0.93137062
1.7239698 2.0169258 0.93067145
3.0232921 1.7236186 0.59039623
2.794585 1.6851221 0.65146571
2.6799359 1.6985712 0.68219274
2.6083999 1.7321113 0.70145142
2.5198636 1.753798 0.72522157
2.3898375 1.7475824 0.7600016
2.2031746 1.7008342 0.80980915
2.0761895 1.6853243 0.84375095
1.9990408 1.698712 0.86445284
1.938203 1.7211069 0.88081896
1.8852706 1.7476058 0.89508408
1.801041 1.7490257 0.91764474
1.8328151 1.8388765 0.90944362
1.8167413 1.8931875 0.91393435
1.7621485 1.9157896 0.92863131
1.7296187 1.9564031 0.9374814
1.7399712 2.0360317 0.93497843
2.8923697 1.6713355 0.63780433
2.7861156 1.6909964 0.66628915
2.6887853 1.7119912 0.69239175
2.6171651 1.7444513 0.71165305
2.5202599 1.7599391 0.73762828
2.3573749 1.7315075 0.78112543
2.1717465 1.6819382 0.8306458
2.0699348 1.6803905 0.85788727
2.0171809 1.7090662 0.87209296
1.9483659 1.7249296 0.89055967
1.8269447 1.76279 0.92317575
1.8580321 1.8527703 0.91513109
1.8490996 1.9130714 0.91770715
1.7719909 1.9159937 0.93835545
1.7686759 1.982056 0.93944556
3.0870049 1.712917 0.59385103
2.8757093 1.6830724 0.6503039
2.7609994 1.6965775 0.68103647
2.6894212 1.7301624 0.70029032
2.600826 1.7518977 0.7240606
2.4874349 1.7558328 0.75441855
2.3005245 1.7094748 0.80430615
2.1487856 1.6782945 0.84482765
2.0797534 1.6970675 0.86336076
2.0268524 1.7251278 0.87760448
1.9579941 1.7402432 0.89608139
1.8441355 1.7827948 0.92668736
1.9123973 1.9040364 0.9087683
1.857541 1.9269378 0.92352033
1.795258 1.9419683 0.94023979
1.7985388 2.014734 0.939574
2.9561751 1.6745909 0.63463324
2.8498209 1.6944327 0.66314811
2.7438533 1.7109493 0.69155407
2.6722128 1.743428 0.71081883
2.5668998 1.7539726 0.7390331
2.4206805 1.7356602 0.77811503
2.2349362 1.6862843 0.82768738
2.1248834 1.6794869 0.85712433
2.0721128 1.7081821 0.87133265
2.0112154 1.7297697 0.8876968
1.8441458 1.7967838 0.93261415
1.8662751 1.8809071 0.92693305
1.8268139 1.9151697 0.93759537
1.8015298 1.9616406 0.94449914
1.7897693 2.0211017 0.94781864
3.175081 1.715834 0.59063524
2.9550264 1.6817427 0.649454
2.8403132 1.6952558 0.68021584
2.7687173 1.7288448 0.69949263
2.680119 1.7505879 0.72328836
2.5583653 1.7494889 0.7558921
2.3797832 1.7081978 0.80359089
2.2361987 1.6823734 0.841968
2.1589823 1.6958083 0.86269242
2.0980844 1.7182364 0.879076
2.0214174 1.7274414 0.89964122
1.8777677 1.809848 0.93838453
1.884336 1.8813704 0.93685091
1.852288 1.9213344 0.94556272
1.841362 1.9805037 0.94867676
3.2237101 1.7108902 0.59235185
3.0124075 1.6810617 0.64887673
2.9062948 1.6991636 0.67737818
2.8261182 1.7281702 0.698964
2.7375262 1.7499155 0.72278196
2.6157863 1.7488205 0.75540829
2.4454751 1.7127163 0.80093515
2.2854731 1.676353 0.84369951
2.2164335 1.6951332 0.86227131
2.1555421 1.7175635 0.87867236
2.0867753 1.7325441 0.8971591
3.1228368 1.6727045 0.63320494
3.0165441 1.6925395 0.66178697
2.9191751 1.7137084 0.68798381
2.839035 1.7415231 0.70958406
2.7253799 1.747087 0.74008906
2.5875969 1.7337345 0.77699804
2.3936908 1.6790819 0.82880563
2.3000295 1.6829613 0.85394996
2.2311444 1.7006711 0.87249875
2.1703875 1.7221127 0.88888496
3.289813 1.7060627 0.5952298
3.0872478 1.6805001 0.64941514
2.9811296 1.6985927 0.67791742
2.9094694 1.7323405 0.69724548
2.8123622 1.7493374 0.72332996
2.6906245 1.7482349 0.75595176
2.5120454 1.7069291 0.80365765
2.3766396 1.6864425 0.83987284
2.2912598 1.6945361 0.86278671
2.2303684 1.7169665 0.87919164
2.1773808 1.7434924 0.89349359
3.177068 1.6720963 0.63446581
3.0794361 1.6964462 0.660721
2.9820206 1.7177763 0.68690699
2.8933747 1.7409384 0.71075344
2.7797568 1.7465181 0.74122369
2.5838821 1.6973493 0.79353023
