# .PCD v0.7 - Point Cloud Data file format
VERSION 0.7
FIELDS x y z
SIZE 4 4 4
TYPE F F F
COUNT 1 1 1
WIDTH 236
HEIGHT 1
VIEWPOINT 0 0 0 1 0 0 0
POINTS 236
DATA ascii
-3.1445985 -8.2543774 0.24343342
-2.9990816 -8.1730642 0.2122698
-3.4163311 -8.2357864 0.30661178
-3.0345399 -8.2338047 0.22176905
-3.4859369 -8.2155952 0.32865426
-3.1063673 -8.2181969 0.24416754
-2.9353402 -8.1793175 0.20666035
-3.1343725 -8.244379 0.26442909
-3.395283 -8.2407084 0.33089256
-3.235445 -8.1921902 0.29608926
-3.6341753 -8.2455988 0.39381024
-3.4420183 -8.263607 0.35094425
-3.2917664 -8.1993732 0.31851944
-3.1122322 -8.1836615 0.27892369
-3.6764903 -8.2464075 0.41518527
-3.4478602 -8.3365965 0.36326569
-3.3300822 -8.2124453 0.33890551
-3.1310608 -8.2329426 0.29452059
-3.7275617 -8.2563715 0.43408954
-3.5368273 -8.2782555 0.39150158
-3.3677242 -8.2521315 0.35438058
-3.7571528 -8.2555246 0.45263708
-3.5762155 -8.2616348 0.41235116
-3.3845284 -8.2813187 0.36948681
-3.2389281 -8.2097502 0.33813676
-3.6384759 -8.2718401 0.42881089
-3.3787503 -8.4256783 0.3688274
-3.2970343 -8.2321424 0.35333499
-3.1229722 -8.211215 0.31486723
-3.6928482 -8.2903156 0.44357303
-3.4932747 -8.3314829 0.39846003
-3.3422885 -8.2714977 0.36561054
-3.1632049 -8.2607918 0.32579681
-3.7256184 -8.2991581 0.46064028
-3.5579457 -8.280057 0.42337728
-3.3301449 -8.3720579 0.37109727
-3.2399049 -8.1964598 0.35335827
-3.7799935 -8.2988338 0.47896346
-3.6171634 -8.2726068 0.44281816
-3.2813764 -8.2277546 0.36814713
-3.1031418 -8.2174511 0.32832032
-3.8304999 -8.3335371 0.49303833
-3.6717598 -8.2997789 0.45788902
-3.2993135 -8.3285866 0.37388197
-3.1625526 -8.2407112 0.34443372
-3.725733 -8.3082705 0.47616452
-3.5670807 -8.2730093 0.44106337
-3.7552741 -8.3339634 0.49128622
-3.6050487 -8.2822275 0.45831737
-3.1013551 -8.2148151 0.3462103
-3.639215 -8.3085709 0.47269076
-3.1309111 -8.2545691 0.35936373
-3.6822557 -8.316412 0.48865873
-3.5280752 -8.2737551 0.45468032
-3.7266386 -8.3510504 0.50121552
-3.5847626 -8.2827415 0.4703916
-3.6828659 -8.3253651 0.50169539
-3.5414495 -8.2572832 0.47094911
-3.693542 -8.3861723 0.51297075
-3.5717034 -8.273901 0.48733899
-3.6179657 -8.3169317 0.50059724
-3.1392243 -8.2204618 0.39406502
-3.6606345 -8.3412819 0.51706058
-3.6458328 -8.4753008 0.52249408
-3.5625055 -8.2728739 0.50695902
-3.6012914 -8.3061237 0.52348232
-3.1197102 -8.224081 0.41567177
-3.5961497 -8.4034109 0.53236473
-3.1453807 -8.2527084 0.43251345
-3.5327961 -8.2982273 0.52429801
-3.1195192 -8.2082472 0.43624452
-3.1389174 -8.2440395 0.45115024
-3.1208501 -8.2328482 0.474877
-3.1501195 -8.2536936 0.51665366
-3.1294186 -8.2392702 0.53712946
-3.1220386 -8.2249975 0.55437517
-3.1564429 -8.2560272 0.56992882
-3.0972338 -8.2186117 0.57469076
-3.1872816 -8.2597075 0.6108008
-3.1200781 -8.2388744 0.61566657
-3.1663458 -8.2580881 0.63283581
-3.189867 -8.2761898 0.64800704
-3.1646485 -8.2658596 0.66057193
-3.2163341 -8.2737703 0.67693573
-3.2507455 -8.3093452 0.69147253
-3.113219 -8.2461376 0.66088033
-3.2861202 -8.2880688 0.71044093
-3.1455052 -8.2357416 0.67890352
-3.3417885 -8.2947474 0.72738707
-3.1912034 -8.2719851 0.6930021
-3.3939903 -8.3006649 0.74500096
-3.2466991 -8.2699461 0.71153235
-3.1097345 -8.2083721 0.68100429
-3.4201858 -8.3260365 0.76416528
-3.2820256 -8.268322 0.7332744
-3.1318731 -8.2458019 0.69898403
-3.4658315 -8.321579 0.78631353
-3.3155432 -8.3032455 0.75190854
-3.1683002 -8.2726336 0.71842319
-3.5415437 -8.3573723 0.82858354
-3.3997576 -8.3132305 0.79659957
-3.1121104 -8.236248 0.73150033
-3.6391103 -8.3708181 0.86642975
-3.4943748 -8.3389864 0.83354777
-3.3529 -8.294981 0.80162334
-3.6611724 -8.381628 0.88184565
-3.5110765 -8.3703718 0.84731251
-3.3746681 -8.3084517 0.81680316
-3.0873444 -8.2344227 0.75158471
-3.6155725 -8.3731737 0.87841183
-3.4735103 -8.3331194 0.84615707
-3.1826437 -8.273984 0.77971685
-3.6442897 -8.3838968 0.8920601
-3.5046277 -8.3355551 0.86038387
-3.6894412 -8.3836632 0.90916151
-3.5423799 -8.3656721 0.87514186
-3.4084327 -8.2968731 0.84507644
-3.1190341 -8.2382441 0.77853507
-3.7440078 -8.3820953 0.92730886
-3.5971289 -8.3655062 0.89328212
-3.4578388 -8.3172789 0.86158371
-3.1708064 -8.2517109 0.7956695
-3.7650006 -8.3800325 0.94764489
-3.6206357 -8.3551493 0.9143275
-3.4740772 -8.3373013 0.8803761
-3.8550725 -8.4023523 0.9846108
-3.7104735 -8.3800926 0.95122749
-3.568393 -8.3455 0.91864675
-3.140348 -8.2456837 0.82041419
-3.8737214 -8.4176149 1.0042626
-3.7268755 -8.4064131 0.97021449
-3.5909667 -8.3438711 0.93959856
-3.1576262 -8.2673416 0.83986968
-3.827198 -8.4080439 1.0074157
-3.6804695 -8.3968763 0.97344637
-3.1116793 -8.2579603 0.8434062
-3.8519206 -8.4222116 1.0257148
-3.7149386 -8.3634148 0.99483013
-3.5560083 -8.4095125 0.95704573
-3.1404366 -8.259201 0.86287177
-3.8906307 -8.4361086 1.0431842
-3.7513161 -8.3883371 1.0115542
-3.6049659 -8.3772106 0.97766048
-3.1805832 -8.2697926 0.88066167
-3.9341745 -8.4485388 1.0594188
-3.7944443 -8.4019642 1.0277115
-3.6519129 -8.3725252 0.99505764
-3.9533443 -8.4606104 1.0765394
-3.8150032 -8.405407 1.0452857
-3.6686652 -8.3968353 1.0113709
-3.1049953 -8.2488213 0.88270897
-3.8980236 -8.4298325 1.0773325
-3.7533185 -8.4139719 1.0438448
-3.916527 -8.4509983 1.0931886
-3.7715378 -8.4363699 1.0595031
-3.9638231 -8.4519014 1.1097683
-3.1180136 -8.2454596 0.91457546
-3.1585729 -8.2439861 0.93191642
-3.1293511 -8.2604771 0.94946516
-3.1566668 -8.2386093 0.97183752
-3.1241679 -8.2355642 0.99274856
-3.168524 -8.2517262 1.0059513
-2.9133003 -8.1845407 0.95520508
-3.1407182 -8.2395582 1.0144597
-3.0012326 -8.2092209 0.98152775
-3.1666961 -8.2551289 1.0292948
-3.0269392 -8.2260895 0.99619222
-2.8855462 -8.2042875 0.9625718
-3.063704 -8.281065 1.0089716
-2.9379547 -8.1822987 0.98037547
-3.1624136 -8.24193 1.0445186
-3.0267437 -8.1947165 1.0125495
-3.0461464 -8.2196674 1.0272288
-2.9110277 -8.1713037 0.99537414
-3.0964286 -8.2237053 1.0441903
-2.959218 -8.1863928 1.0115856
-3.11411 -8.2271395 1.0616868
-2.9767661 -8.191102 1.028973
-3.1613371 -8.2393179 1.077924
-3.0253546 -8.1946678 1.0456655
-3.1920364 -8.2704077 1.0928491
-3.0554383 -8.2268953 1.0603694
-2.9217191 -8.1711893 1.0288074
-3.2136467 -8.2713919 1.1089494
-3.0783801 -8.2192287 1.0769266
-2.9427955 -8.1745796 1.0446913
-3.2569487 -8.2816916 1.1238106
-3.1213048 -8.2307148 1.0916234
-2.9854047 -8.1872578 1.0592378
-3.3036683 -8.2815771 1.138786
-3.1677155 -8.2318325 1.1064698
-3.0284631 -8.209321 1.0728517
-3.3228238 -8.281003 1.1538602
-3.1827886 -8.262167 1.1199386
-3.0460227 -8.2210712 1.0872283
-2.9119356 -8.1677418 1.0554003
-3.357537 -8.2894001 1.1707609
-3.2173736 -8.2718077 1.1367589
-3.0802917 -8.2319269 1.1039236
-2.9426792 -8.199502 1.0708194
-3.2671466 -8.2608719 1.1556922
-3.127491 -8.2420635 1.1218009
-2.9925797 -8.1911201 1.0896618
-3.3090694 -8.2791729 1.1733619
-3.1727159 -8.2318602 1.1407841
-3.0349035 -8.201951 1.1075312
-3.3295553 -8.2964506 1.1921389
-3.1915231 -8.2602482 1.1588709
-3.0531425 -8.2315207 1.1253854
-3.3619273 -8.3037176 1.2093354
-3.2236674 -8.2687521 1.1759231
-3.3876526 -8.3105907 1.2257513
-3.2500415 -8.2669182 1.1925969
-3.4288573 -8.3166399 1.2430307
-3.2900636 -8.2841606 1.2093157
-3.1532195 -8.2392941 1.1763045
-3.475105 -8.3320141 1.2605528
-3.3366199 -8.2908106 1.2270398
-3.1945148 -8.2968979 1.1917895
-3.4938626 -8.3263111 1.2811873
-3.3545356 -8.2963343 1.2471843
-3.5312665 -8.3402834 1.2987572
-3.3921821 -8.3015585 1.264938
-3.5634515 -8.3538256 1.3133147
-3.4249678 -8.2963343 1.2799485
-3.591382 -8.3468027 1.330688
-3.4512544 -8.3204985 1.2963202
-3.6390274 -8.3589773 1.3465061
-3.4992378 -8.3139238 1.3125244
-3.6734805 -8.3805389 1.3637407
-3.5333679 -8.3267326 1.3297474
-3.6981027 -8.3914604 1.3816242
-3.5573497 -8.3389044 1.3473812
-3.7393341 -8.4014139 1.4011223
-3.5980406 -8.3501177 1.3666307
-3.6626225 -8.370348 1.4061412
