# .PCD v0.7 - Point Cloud Data file format
VERSION 0.7
FIELDS x y z
SIZE 4 4 4
TYPE F F F
COUNT 1 1 1
WIDTH 326
HEIGHT 1
VIEWPOINT 0 0 0 1 0 0 0
POINTS 326
DATA ascii
-2.1325316 -9.5711384 0.023098225
-2.1954703 -9.6139364 0.045363944
-2.0645301 -9.5871019 0.02698765
-2.0946033 -9.6451855 0.045091242
-2.1494107 -9.6870947 0.064214572
-1.9847977 -9.5834837 0.029169369
-2.1783147 -9.7268181 0.081273392
-1.9977161 -9.6502352 0.04221053
-2.0637221 -9.6924295 0.058286071
-1.9042287 -9.5801706 0.024333945
-2.1263061 -9.7340393 0.073669411
-1.9353756 -9.6743374 0.031893317
-2.1637342 -9.7749586 0.090324916
-1.972533 -9.7170305 0.048332166
-1.8333262 -9.5706072 0.019218327
-2.0275068 -9.7598076 0.065365478
-1.8413471 -9.6913061 0.024577739
-2.0955775 -9.8014278 0.082747355
-1.9090168 -9.7346668 0.041818529
-1.7695719 -9.5880556 0.012599544
-1.2548475 -9.6611586 -0.10398436
-2.1640463 -9.8248949 0.10381673
-1.9624631 -9.7858572 0.059127003
-1.7809432 -9.708559 0.019488879
-1.2967927 -9.7348137 -0.089574553
-2.0053782 -9.8274202 0.076408505
-1.7731031 -9.8373356 0.024102181
-1.631882 -9.6895952 -0.0054401616
-1.3663479 -9.7406521 -0.065820411
-2.0534313 -9.8680506 0.093021765
-1.8511716 -9.8285046 0.048196182
-1.6536818 -9.7762098 0.0046344567
-1.4509914 -9.7282486 -0.040160842
-1.2696851 -9.6427317 -0.079587087
-2.1115088 -9.8908119 0.11128782
-1.9093344 -9.8533087 0.066439882
-1.6866835 -9.8457823 0.016524354
-1.509137 -9.7571297 -0.021996586
-1.2849854 -9.7404222 -0.072107747
-2.1604469 -9.9569826 0.12345698
-1.981756 -9.8776913 0.084522389
-1.7546053 -9.881012 0.033375956
-1.5715592 -9.8026276 -0.0065532513
-1.3632113 -9.7627792 -0.05278445
-2.0955908 -9.9761906 0.11727661
-1.9069875 -9.9141083 0.075799994
-1.6693529 -9.934288 0.021938927
-1.5109138 -9.8128433 -0.011777221
-1.3076706 -9.7644997 -0.056777213
-2.1414988 -10.006082 0.13627419
-1.9574102 -9.9371176 0.095884323
-1.7496816 -9.9078169 0.049509082
-1.5513436 -9.8569956 0.0056060231
-1.3685285 -9.7767048 -0.034313187
-2.0268307 -9.9767332 0.11386825
-1.819038 -9.9493799 0.067384697
-1.6105506 -9.917613 0.020815192
-1.4473295 -9.8048449 -0.014194617
-1.2809435 -9.69769 -0.050012171
-2.0751488 -10.033263 0.13075489
-1.8764135 -9.9902344 0.086550765
-1.658036 -9.9777002 0.037401531
-1.4987044 -9.8577576 0.0033753996
-1.3158764 -9.7774734 -0.03661754
-2.1314075 -10.054436 0.1537855
-1.942073 -9.995923 0.1118844
-1.7387471 -9.959753 0.066449843
-1.5300769 -9.9279356 0.019731889
-1.3666521 -9.8151064 -0.015413091
-2.0005872 -10.034938 0.13255793
-1.7830089 -10.026866 0.083370946
-1.5787266 -9.9881134 0.037698291
-1.4192921 -9.8681116 0.0035110093
-1.2725379 -9.728549 -0.027482769
-2.0286489 -10.10033 0.149012
-1.8339484 -10.05021 0.10563205
-1.6249766 -10.022244 0.058651868
-1.4499513 -9.9296646 0.020427633
-1.2865547 -9.8168612 -0.014829059
-2.0959871 -10.137492 0.16783123
-1.9102215 -10.071562 0.12668762
-1.6967928 -10.054442 0.078463882
-1.5018369 -9.9981594 0.035073966
-1.3523068 -9.8609781 0.0033245566
-1.9675057 -10.126989 0.14280635
-1.7583821 -10.102911 0.095655486
-1.5628928 -10.048362 0.052105151
-1.4071888 -9.9211063 0.018795354
-1.2693858 -9.7658415 -0.0099848732
-1.9944845 -10.190774 0.15850063
-1.7940865 -10.150763 0.11351409
-1.5982149 -10.097948 0.069769122
-1.4268881 -9.9979982 0.032389421
-1.2673186 -9.877902 -0.0019819159
-2.0625799 -10.209512 0.1813992
-1.8533283 -10.18924 0.13401774
-1.6525398 -10.147026 0.088923573
-1.4755918 -10.057295 0.050043348
-1.3148817 -9.9385357 0.015338943
-2.114639 -10.279954 0.197717
-1.9180678 -10.234612 0.15361539
-1.7077993 -10.211786 0.1060213
-1.5298268 -10.123442 0.066862337
-1.3678542 -10.005923 0.031827301
-1.2383162 -9.8343945 0.0050708447
-1.9453119 -10.288017 0.17331107
-1.7437255 -10.249242 0.12796338
-1.5558832 -10.180068 0.086244553
-1.3783917 -10.089928 0.047228385
-1.2320062 -9.9449635 0.016198549
-2.0872977 -10.321033 0.22075315
-1.8773006 -10.304116 0.17320958
-1.6528733 -10.309355 0.12201731
-1.4686459 -10.230762 0.081353314
-1.31431 -10.096635 0.048409142
-1.1975359 -9.899971 0.025044678
-2.0007997 -10.347363 0.22080487
-1.7859718 -10.33909 0.17211083
-1.5699347 -10.326254 0.12321713
-1.3854049 -10.247455 0.082575947
-1.2355949 -10.104437 0.050888527
-2.1212342 -10.432411 0.26126993
-1.9231411 -10.391933 0.2168787
-1.7031885 -10.392169 0.16684583
-1.5042937 -10.343432 0.12240776
-1.3101562 -10.281969 0.079259418
-1.2030609 -10.060472 0.05854414
-1.9648994 -10.415348 0.23573145
-1.7581543 -10.390737 0.18896765
-1.5374638 -10.388535 0.13865496
-1.3474437 -10.319934 0.096428074
-2.0443873 -10.430287 0.25796676
-1.8379304 -10.407727 0.21120028
-1.6002716 -10.443418 0.15635179
-1.4230917 -10.349887 0.11743653
-1.2195404 -10.305786 0.071686871
-2.1034627 -10.471524 0.27542305
-1.9009243 -10.441746 0.22961701
-1.6765542 -10.45271 0.17814554
-1.4636592 -10.432138 0.12981957
-1.272876 -10.363091 0.087349519
-1.9438988 -10.483959 0.24691857
-1.7406976 -10.451881 0.20097855
-1.5153271 -10.460334 0.14928579
-1.3242886 -10.393116 0.1067177
-1.129294 -10.331011 0.063158378
-2.0093539 -10.498019 0.2695978
-1.8064232 -10.467955 0.2236591
-1.573083 -10.496542 0.16977137
-1.3905852 -10.413318 0.1294051
-1.1680459 -10.405991 0.078594632
-1.9143025 -10.542491 0.26438448
-1.7064682 -10.521029 0.21719408
-1.4850683 -10.522203 0.16651352
-1.2799215 -10.483096 0.12023861
-1.097519 -10.395837 0.079989709
-2.0437219 -10.604363 0.3095395
-1.8478281 -10.559375 0.2655423
-1.6272583 -10.564812 0.21504714
-1.4136655 -10.547618 0.16653323
-1.208059 -10.508212 0.12022144
-2.093127 -10.614632 0.33508042
-1.8855841 -10.598965 0.28795186
-1.6772375 -10.579088 0.24071199
-1.4555073 -10.58195 0.19002913
-1.2497129 -10.544396 0.14367175
-1.9601176 -10.619721 0.31043464
-1.7559422 -10.592689 0.26425549
-1.5347308 -10.597703 0.21364528
-1.329116 -10.562163 0.16728231
-1.1276652 -10.513602 0.12209005
-2.0263906 -10.649156 0.33203918
-1.8221201 -10.623982 0.28581089
-1.6132922 -10.6038 0.23845772
-1.3953012 -10.597354 0.18877774
-1.1935713 -10.55064 0.14349371
-2.0771708 -10.658606 0.3529495
-1.8616668 -10.662913 0.30355871
-1.6606883 -10.626311 0.25818601
-1.4429802 -10.621879 0.20843706
-1.2325892 -10.594951 0.16074365
-2.1346803 -10.686416 0.37198487
-1.9269902 -10.674255 0.32457644
-1.7145087 -10.667036 0.27598605
-1.5050021 -10.646367 0.22830456
-1.294789 -10.621432 0.18053462
-2.0470419 -10.722738 0.36045566
-1.8349904 -10.719442 0.31172934
-1.6335236 -10.684381 0.26599389
-1.4237416 -10.663496 0.21809687
-1.2090259 -10.647322 0.1689817
-2.1196277 -10.740555 0.38102424
-1.9115152 -10.73001 0.33328637
-1.69866 -10.724434 0.2843675
-1.4926701 -10.696283 0.23742589
-1.2779434 -10.682068 0.18822673
-1.9736813 -10.758403 0.35397729
-1.7610252 -10.754768 0.30501044
-1.5628915 -10.710228 0.26010972
-1.3445226 -10.707188 0.20981382
-2.0137303 -10.795485 0.37213424
-1.8121344 -10.766007 0.32610241
-1.5987387 -10.7601 0.27692753
-1.3962148 -10.722507 0.23082522
-2.0881786 -10.823135 0.39259124
-1.8865263 -10.79553 0.34648857
-1.6732734 -10.791606 0.29728168
-1.4745476 -10.746761 0.25216237
-1.2555891 -10.743401 0.20162651
-1.9539573 -10.83347 0.36682686
-1.7406312 -10.831461 0.31757745
-1.5453248 -10.779231 0.27339271
-1.3304578 -10.768806 0.22393651
-2.0062001 -10.862988 0.39225966
-1.8002599 -10.844494 0.34499735
-1.5861796 -10.840332 0.29559818
-1.3983706 -10.767817 0.25348786
-2.0757601 -10.87214 0.42030501
-1.8702028 -10.855738 0.3730886
-1.6603116 -10.844514 0.32477957
-1.4610479 -10.801531 0.27948329
-1.9907537 -10.920923 0.42726567
-1.7914159 -10.885695 0.38183972
-1.5810294 -10.874378 0.33345816
-1.3889332 -10.812941 0.29014581
-2.1441965 -10.934558 0.47838065
-1.9351761 -10.931416 0.43017113
-1.7321545 -10.905474 0.38372675
-1.5251216 -10.884821 0.33626837
-1.9802202 -10.957738 0.44933438
-1.7805997 -10.924335 0.40370953
-1.5665373 -10.924226 0.35417902
-1.3812789 -10.84606 0.31263414
-2.1352682 -10.979155 0.48977089
-1.9293586 -10.968433 0.44218403
-1.7226872 -10.953669 0.39449054
-1.5153357 -10.934821 0.34670955
-2.1848328 -11.013099 0.50588167
-1.9820821 -10.994835 0.45897022
-1.7822136 -10.963277 0.41296262
-1.5682062 -10.965142 0.36307296
-2.0458522 -11.029173 0.47887918
-1.8490648 -10.990033 0.4336122
-1.6387531 -10.984562 0.38459456
-1.445393 -10.928487 0.34042519
-2.1247225 -11.042857 0.50227648
-1.92474 -11.015031 0.45602959
-1.7111982 -11.020886 0.4060235
-1.5068347 -10.994486 0.35872751
-2.1644745 -11.074945 0.5266118
-1.9642887 -11.048926 0.48025721
-1.7541071 -11.04731 0.43114215
-1.5531423 -11.013474 0.38474169
-2.0949519 -11.122567 0.52666938
-1.9032815 -11.067886 0.48284769
-1.68949 -11.075556 0.432785
-2.1366017 -11.153584 0.55221689
-1.9383991 -11.119598 0.50657612
-1.7307264 -11.110204 0.45830685
-1.5256243 -11.087358 0.41086727
-2.0791464 -11.182411 0.55278647
-1.8834342 -11.13877 0.50795805
-1.6721929 -11.138691 0.45876637
-2.1271443 -11.21199 0.57651937
-1.9310793 -11.170077 0.53157973
-1.7198488 -11.171862 0.48236337
-2.1898689 -11.24125 0.59925598
-1.9906286 -11.210624 0.5533722
-1.7853758 -11.195255 0.50582761
-1.5732065 -11.194797 0.45641747
-2.2561512 -11.268264 0.62060404
-2.0510483 -11.258482 0.57304633
-1.8601031 -11.197195 0.52966511
-1.6515045 -11.189261 0.48126251
-2.099138 -11.26763 0.59668642
-1.9023025 -11.227174 0.55155885
-1.6906555 -11.230526 0.50222772
-2.2298644 -11.321611 0.63845885
-2.0242755 -11.313346 0.5906266
-1.8295584 -11.262989 0.5460543
-1.6172876 -11.266014 0.49646854
-2.2813935 -11.318439 0.66153228
-2.0709767 -11.331325 0.61204886
-1.8732353 -11.292274 0.56641543
-1.661019 -11.297147 0.51664495
-2.1414971 -11.358396 0.63255513
-1.9407716 -11.330683 0.58586109
-1.7313898 -11.327834 0.53671205
-2.2037497 -11.384998 0.65433776
-1.997516 -11.378291 0.60589963
-1.7962049 -11.348516 0.5590089
-2.2566609 -11.410298 0.67646879
-2.0504084 -11.405414 0.62782431
-1.8516096 -11.367823 0.58148342
-2.3154829 -11.454956 0.69838768
-2.1138875 -11.432504 0.6510998
-1.9148402 -11.396693 0.60463583
-1.7076793 -11.385915 0.55583709
-2.1910717 -11.448572 0.67518103
-1.9867823 -11.433852 0.62705582
-1.7821053 -11.41528 0.5789023
-2.232563 -11.493621 0.70057434
-2.0352962 -11.451692 0.65451944
-1.8306642 -11.435031 0.60631371
-2.3730462 -11.532078 0.75010639
-2.1729665 -11.503446 0.70312613
-1.9681038 -11.490464 0.65476328
-1.7707514 -11.444784 0.60870039
-2.2237792 -11.518436 0.72698593
-2.021385 -11.497658 0.67925757
-1.8214293 -11.46348 0.63231862
-2.2921679 -11.562144 0.74408734
-2.0916152 -11.533399 0.6968134
-1.8961979 -11.481654 0.65113097
-2.3447001 -11.566143 0.76409841
-1.9392483 -11.528096 0.66793102
-2.0831368 -11.579774 0.70406437
-1.8918275 -11.510355 0.65936196
-1.9353027 -11.586009 0.6759975
-2.015851 -11.582616 0.69944704
-2.1625051 -11.621481 0.74368322
-2.0122368 -11.619464 0.71677381
-2.0840278 -11.672006 0.73775959
-2.1355748 -11.665073 0.76331133
-2.2043071 -11.725188 0.78366029
-2.1858411 -11.763926 0.79963952
