# .PCD v0.7 - Point Cloud Data file format
VERSION 0.7
FIELDS x y z
SIZE 4 4 4
TYPE F F F
COUNT 1 1 1
WIDTH 782
HEIGHT 1
VIEWPOINT 0 0 0 1 0 0 0
POINTS 782
DATA ascii
5.4591002 -6.350141 -0.24558756
5.4707499 -6.6737032 -0.24157786
5.4845343 -6.4579501 -0.24412566
5.4717264 -6.2234969 -0.23950896
5.5013962 -6.5660071 -0.24171491
5.4913607 -6.3305564 -0.23789212
5.5200539 -6.6673131 -0.23752332
5.5267587 -6.4448032 -0.23823868
5.5279789 -6.224122 -0.23750372
5.5708613 -6.5606828 -0.23676275
5.5608058 -6.3253503 -0.2330697
5.5896668 -6.6617503 -0.23155482
5.5822492 -6.4255781 -0.22866049
5.5902257 -6.2120352 -0.22994967
5.646822 -6.5534716 -0.23315729
5.6225228 -6.3046064 -0.22578761
5.6657281 -6.6612048 -0.23405148
5.6442966 -6.4112482 -0.22748217
5.6591244 -6.2047257 -0.23073654
5.7087245 -6.6476545 -0.23693939
5.6730962 -6.384171 -0.22647996
5.7301188 -6.218749 -0.24116202
5.703712 -6.4777598 -0.22312061
5.7486386 -6.2985811 -0.23450842
5.8038335 -6.1331692 -0.2486957
5.7345881 -6.5992656 -0.2249743
5.712141 -6.350431 -0.21808121
5.8325706 -6.2465444 -0.24995318
5.7208667 -6.4161115 -0.20503117
5.8422909 -6.3132014 -0.23716578
5.8905458 -6.1408401 -0.24947409
5.9058957 -5.9424086 -0.25288144
5.7673082 -6.6400585 -0.20103613
5.7051215 -6.349647 -0.18342502
5.9240904 -6.3437123 -0.24197371
5.9585471 -6.1574583 -0.25056389
5.9596467 -5.9456244 -0.25014269
5.7264051 -6.438602 -0.174071
5.7922158 -6.2824702 -0.19114985
5.9825363 -6.2478466 -0.24190658
5.9860044 -6.0355163 -0.24213667
5.9989929 -5.8380208 -0.24495903
5.7002883 -6.5051737 -0.15970348
5.7052126 -6.2868438 -0.16034225
6.0004911 -6.3576264 -0.23948443
5.9994297 -6.1377234 -0.23851761
6.0075102 -5.9329948 -0.24004216
5.7692804 -6.6716223 -0.1706486
5.7024961 -6.3741589 -0.15189585
5.8580551 -6.3091083 -0.19324902
6.0062079 -6.2335892 -0.23259217
6.0239501 -6.0349402 -0.23672013
6.0370069 -5.8375869 -0.23959957
5.7191973 -6.453949 -0.14175595
5.7302704 -6.2435784 -0.14411837
6.0599198 -6.3496904 -0.23250468
6.0731087 -6.1434669 -0.23544458
6.0668302 -5.9255672 -0.23314761
5.7162647 -6.5323982 -0.13226509
5.7089071 -6.3006644 -0.12967469
6.0515714 -6.4236321 -0.22160016
6.0880361 -6.2376285 -0.23084535
6.0913968 -6.0256796 -0.23117043
6.1115789 -5.8351088 -0.23604962
5.764627 -6.6749568 -0.13947169
5.7198739 -6.3991122 -0.12677082
5.7715402 -6.2315822 -0.14013687
6.1008921 -6.3380318 -0.22848134
6.1210279 -6.1387796 -0.23333192
6.1073914 -5.914422 -0.22908781
5.7214475 -6.455225 -0.11474293
5.7402296 -6.2529907 -0.11920193
6.123878 -6.4183335 -0.22232231
6.1602321 -6.2324648 -0.23152761
6.1706905 -6.0273023 -0.23374964
6.1762481 -5.8236895 -0.23466349
5.7207084 -6.62323 -0.10368722
5.7641149 -6.441864 -0.11473679
5.7483993 -6.2046862 -0.10977536
6.096312 -6.3363543 -0.20335196
6.2235012 -6.2401977 -0.23710367
6.2268968 -6.0282459 -0.23734209
6.2251606 -5.8181024 -0.23621142
5.833344 -6.809226 -0.12400956
5.7335911 -6.467289 -0.096095085
5.726203 -6.2375746 -0.093312696
5.9896464 -6.2890391 -0.16405681
6.1862574 -6.264369 -0.21663316
6.298121 -6.1538734 -0.24621099
6.2993064 -5.9424267 -0.24578626
5.7228074 -6.5433807 -0.086011574
5.7446566 -6.3418717 -0.091156155
5.788991 -6.1697412 -0.10242132
5.968873 -6.1361632 -0.15046462
6.2912836 -6.233613 -0.23712233
6.3089762 -6.0350986 -0.24116345
6.343936 -5.8574429 -0.24990043
5.7134433 -6.6193705 -0.075029433
5.7574821 -6.4393625 -0.086176246
5.7156796 -6.1746407 -0.074065939
5.9089375 -6.1575184 -0.12569582
6.068222 -6.1010299 -0.16810112
6.3632827 -6.1683168 -0.24725993
6.3720102 -5.963192 -0.24887401
5.701057 -6.9198923 -0.061127529
5.7259574 -6.7093263 -0.067071334
5.7124863 -6.4636068 -0.062637307
5.7060432 -6.2347879 -0.060135838
5.7554369 -6.071537 -0.072783291
6.3183579 -6.1999941 -0.22367987
6.4137897 -5.8642621 -0.24804503
5.7438526 -7.0320368 -0.052180201
5.7779765 -6.8282285 -0.060602468
5.7479982 -6.5593247 -0.051739734
5.7308331 -6.3153005 -0.046369493
5.7480774 -6.1165142 -0.050308779
5.7604175 -5.9190674 -0.052947614
6.0705552 -6.0174484 -0.13586771
6.4572616 -6.1735473 -0.23937394
5.7226996 -7.0985489 -0.034974225
5.7332406 -6.8647676 -0.037042104
5.7247005 -6.6180272 -0.033997066
5.7229013 -6.3882847 -0.032792054
5.7286386 -6.1749859 -0.033643816
5.7221179 -5.9564338 -0.031219596
5.8357153 -5.8643799 -0.061109163
6.2389984 -6.0480456 -0.16884235
5.7516971 -7.1865444 -0.022360295
5.7395058 -6.9220362 -0.018342877
5.7201939 -6.6602082 -0.012444688
5.7266674 -6.4379134 -0.013499089
5.7207417 -6.2102413 -0.011249483
5.7497773 -6.0273399 -0.018399214
5.7882786 -5.8592539 -0.028099338
6.090569 -5.9516315 -0.10850123
6.5551944 -6.1825137 -0.23234524
6.5858388 -5.9967399 -0.23991205
6.5974798 -5.7988682 -0.24240407
5.7316947 -7.3418999 0.00069892994
5.7186007 -7.0687499 0.0049456824
5.7422819 -6.8513284 -0.00070406188
5.7410641 -6.6128898 0.00029976139
5.7204394 -6.3619733 0.0064785611
5.7132034 -6.1355028 0.0090434914
5.7273407 -5.9396334 0.0058611715
5.8336682 -5.842669 -0.022009242
6.0653167 -5.8667927 -0.083407253
6.6074748 -6.1728644 -0.22782353
6.6452131 -5.9937911 -0.23730236
6.6567822 -5.7959137 -0.23979808
5.7606802 -7.1799412 0.007795298
5.7309208 -6.893259 0.016456867
5.7315621 -6.6549377 0.016940143
5.7389369 -6.4335175 0.015594637
5.7273259 -6.1993604 0.019310573
5.7230887 -5.9819274 0.021030633
5.7820072 -5.8368459 0.0058323038
5.9426312 -5.7949915 -0.036579538
6.683485 -6.084518 -0.23353513
6.711925 -5.8991179 -0.24055642
6.713829 -5.6954308 -0.2404995
5.7440705 -7.2537193 0.01788909
5.7356291 -6.9894695 0.020831116
5.7326679 -6.7429161 0.022272518
5.7424822 -6.5209985 0.020265846
5.7136946 -6.2641659 0.02857917
5.7047839 -6.039257 0.031543221
5.7377238 -5.8662271 0.023278033
5.8774896 -5.8052964 -0.013591475
6.0662551 -5.7889485 -0.063563801
6.6932154 -6.1767426 -0.23072699
6.7164521 -5.9843669 -0.23636889
6.7426076 -5.7995076 -0.24280551
5.7212505 -7.3195276 0.029626885
5.733726 -7.0781884 0.026984034
5.7398095 -6.8386765 0.026033867
5.7203913 -6.5786419 0.031897549
5.7134824 -6.343616 0.034380075
5.6937575 -6.1036234 0.040276431
5.721704 -5.9235053 0.033372287
5.8140368 -5.8145251 0.0092082815
5.9603453 -5.759222 -0.029406745
6.7434521 -6.0897512 -0.23785956
6.7646761 -5.8977027 -0.24294814
6.7591395 -5.6876469 -0.24089314
5.7661142 -7.4399123 0.030777616
5.745368 -7.1509995 0.037045445
5.7228098 -6.8728499 0.043765087
5.7368479 -6.6506739 0.040630549
5.7322259 -6.4152408 0.042485103
5.7148085 -6.1747274 0.047743846
5.7177896 -5.9656701 0.047512408
5.7767715 -5.8222003 0.03225325
5.9158297 -5.7619777 -0.0044640708
6.1109595 -5.7531767 -0.056189131
6.7804146 -6.181704 -0.23488143
6.8037391 -5.9891977 -0.24055377
6.8226004 -5.7977562 -0.24504708
5.7564335 -7.2474251 0.043262642
5.736968 -6.9684253 0.049141049
5.722343 -6.707624 0.053692672
5.7389426 -6.4945526 0.049835958
5.7305355 -6.2608037 0.052668806
5.709322 -6.0221257 0.058911826
5.7358298 -5.8433328 0.052342739
5.8748856 -5.7848463 0.015605546
6.0206432 -5.730011 -0.022915855
6.8388629 -6.094593 -0.24091952
6.8527541 -5.8958931 -0.24409182
6.8470993 -5.6858349 -0.24205036
5.7290955 -7.3127604 0.056970693
5.7243495 -7.0489426 0.058874004
5.7557707 -6.8412929 0.051045608
5.7123404 -6.5515256 0.063276216
5.7317991 -6.3473754 0.058614306
5.6934776 -6.0859437 0.069421411
5.7217126 -5.9071498 0.062371787
5.8137693 -5.8000813 0.038214691
5.9524317 -5.7402182 0.0015767425
6.140121 -5.7249475 -0.048179716
6.837801 -6.180758 -0.234392
6.8610697 -5.9882426 -0.24009307
6.8651032 -5.7839198 -0.2406617
5.7530584 -7.4012151 0.066434644
5.7571836 -7.1446586 0.065920651
5.7420835 -6.8748078 0.070534132
5.7571425 -6.6534367 0.067038707
5.74088 -6.4036431 0.071918599
5.7244058 -6.1639094 0.076833166
5.7347202 -5.9631009 0.074553423
5.7804813 -5.8067136 0.062766217
5.9189162 -5.748836 0.026167521
6.0710578 -5.7015028 -0.014089231
6.9172802 -6.0936069 -0.23950507
6.9311256 -5.8949041 -0.2427303
6.9254255 -5.6848426 -0.24074273
5.7402067 -7.2164044 0.077759273
5.7338748 -6.9538851 0.079992682
5.7203746 -6.6938539 0.08412303
5.7314134 -6.474277 0.081659198
5.7173667 -6.2340569 0.085895963
5.7100573 -6.0110164 0.08831194
5.7437773 -5.8406262 0.079727538
5.8688774 -5.7700596 0.046688039
6.0071082 -5.7106676 0.010137258
6.1873417 -5.6890321 -0.037637983
6.9204535 -6.1788836 -0.23321074
6.9437327 -5.9863682 -0.23898003
6.9551721 -5.788486 -0.24159209
5.7315221 -7.2805781 0.090484641
5.7335811 -7.0256357 0.090444848
5.7716289 -6.8269811 0.080739193
5.7295103 -6.5377407 0.092496186
5.7432084 -6.3271785 0.089279063
5.7058787 -6.0664611 0.099711716
5.7278099 -5.8817353 0.094260328
5.826263 -5.7838321 0.068319753
5.9643159 -5.7263036 0.031783741
6.1090803 -5.6724315 -0.0065416396
6.983325 -6.0919857 -0.23948744
6.9897881 -5.886785 -0.2407923
6.976491 -5.6704874 -0.2368273
5.7410154 -7.3693285 0.099702731
5.7400203 -7.1059909 0.10048019
5.7439365 -6.8605595 0.099919669
5.753623 -6.6325488 0.097794481
5.7446313 -6.3912063 0.10065427
5.7162676 -6.1373653 0.10868373
5.7270284 -5.9378448 0.10621984
5.786293 -5.7974844 0.090768367
5.9242716 -5.7418261 0.054256182
6.0689406 -5.6898999 0.015959699
6.2629018 -5.682323 -0.035508487
7.0030255 -6.1790347 -0.23295149
7.0262766 -5.986527 -0.23874594
7.0229106 -5.7757583 -0.23743707
5.7290773 -7.4500785 0.11127285
5.7308211 -7.1863198 0.11126214
5.7313147 -6.9326668 0.11156572
5.718781 -6.6735086 0.11534133
5.7367082 -6.4626689 0.1109447
5.7108417 -6.2082324 0.11825202
5.7106085 -5.9936886 0.11868296
5.7512374 -5.8319597 0.10817688
5.8826389 -5.770659 0.073391058
6.006711 -5.6993604 0.040570129
6.165 -5.659822 -0.0013941842
7.0387173 -6.0800934 -0.2341328
7.0523243 -5.8816614 -0.23740424
7.0240583 -5.6527443 -0.22950357
5.7164183 -7.2663746 0.12235171
5.7137537 -7.0044141 0.12346989
5.7584658 -6.8148823 0.11189688
5.7054949 -6.5107923 0.12644038
5.7324533 -6.3166208 0.11959061
5.6899924 -6.0490394 0.13128977
5.7058983 -5.8582535 0.12737179
5.8375249 -5.7985182 0.092519931
5.9550881 -5.7216315 0.061426848
6.0855689 -5.656188 0.026885465
6.3001361 -5.6697965 -0.030108655
7.0471387 -6.173656 -0.22927542
7.0557847 -5.9681296 -0.23124732
7.0669303 -5.770649 -0.23389263
5.7379379 -7.3538918 0.13113607
5.7322478 -7.0834417 0.13297099
5.7490549 -6.854691 0.12877415
5.7536359 -6.619812 0.12783553
5.7456636 -6.3792815 0.13024183
5.7184472 -6.1260977 0.13778417
5.736412 -5.934999 0.13323618
5.8026266 -5.8032923 0.11578852
5.9403257 -5.7496495 0.079237148
6.0571814 -5.6717129 0.048255466
6.229012 -5.6465054 0.002591945
7.1094599 -6.0740838 -0.23206981
7.1229944 -5.8757896 -0.23543216
7.0946674 -5.6469922 -0.22762409
5.7309766 -7.4327397 0.14269719
5.7396741 -7.1778321 0.14062332
5.7295189 -6.9091396 0.14357498
5.7301164 -6.666409 0.14364344
5.7365394 -6.441164 0.1421492
5.7243209 -6.2026381 0.14562353
5.7250342 -5.9889069 0.14563848
5.7661614 -5.8283701 0.13485172
5.9240022 -5.7979445 0.092891604
6.0278668 -5.7068949 0.065350622
6.1649666 -5.6486659 0.02893433
6.3722844 -5.6555662 -0.026224375
7.1261506 -6.1664166 -0.22726266
7.1346111 -5.9610157 -0.22931987
7.1307883 -5.7507758 -0.22810356
5.7046738 -7.4949093 0.15600023
5.7214675 -7.2479339 0.15172412
5.7080665 -6.9708991 0.15551023
5.7529182 -6.7828436 0.14371926
5.7194638 -6.5025649 0.1528497
5.7219863 -6.2789521 0.15235479
5.6994147 -6.0347614 0.15856028
5.7223125 -5.8524394 0.1526114
5.873373 -5.8165135 0.11242639
5.9774728 -5.7268705 0.084785558
6.0870404 -5.6422653 0.055684816
6.2723427 -5.6313334 0.0063634613
7.1667395 -6.0725985 -0.23210812
7.1655326 -5.861279 -0.23161761
7.1666803 -5.6582589 -0.23176213
5.7404242 -7.3258376 0.15976036
5.7356648 -7.0562768 0.16123906
5.7708793 -6.8523116 0.15201443
5.7462168 -6.5792089 0.15880425
5.73873 -6.3398323 0.16098878
5.7247672 -6.1027813 0.16489832
5.7431083 -5.9128776 0.16016108
5.828948 -5.8047934 0.13736925
5.9528975 -5.7386637 0.10438773
6.0693736 -5.6627269 0.073403627
6.2681465 -5.6678452 0.020420568
6.4405103 -5.6401534 -0.02549842
7.2085071 -6.1644816 -0.23062006
7.2096205 -5.9525037 -0.230747
7.2130036 -5.748837 -0.23148812
5.7309952 -7.4983039 0.17331712
5.7264514 -7.2195868 0.17482899
5.7256765 -6.959372 0.17531195
5.7473693 -6.7408957 0.16975664
5.7390027 -6.492662 0.17225659
5.7176437 -6.2391644 0.17822982
5.701972 -6.0035934 0.1826681
5.7379775 -5.8375139 0.17323869
5.8817196 -5.7965131 0.13492234
6.0122161 -5.7376752 0.10016303
6.1013885 -5.6333838 0.076479256
6.3274059 -5.6667948 0.016123077
6.4785852 -5.6185641 -0.024168812
7.2605767 -6.1565075 -0.23345453
7.2688136 -5.9512367 -0.23542981
7.2795501 -5.7540121 -0.23808041
5.7428846 -7.5853295 0.18216427
5.7470345 -7.3142347 0.18137582
5.7436013 -7.0453625 0.18260698
5.7796049 -6.8424563 0.17324081
5.7323217 -6.5385528 0.18621853
5.7376814 -6.3157916 0.18505369
5.7183104 -6.0720215 0.19051653
5.7369952 -5.8834329 0.18575862
5.8355322 -5.7920566 0.15957634
5.9723392 -5.7425041 0.12313361
6.0819836 -5.6611876 0.093975782
6.3417811 -5.7321296 0.024561945
6.4166989 -5.6091681 0.0047217151
6.674046 -5.6612415 -0.064016782
7.324894 -6.0641904 -0.2381943
7.3162341 -5.8465028 -0.2356194
7.3320456 -5.6565113 -0.2396082
5.7291269 -7.3849587 0.19458921
5.7396994 -7.1319609 0.19204465
5.7200899 -6.8488994 0.19758487
5.7280931 -6.6161289 0.19570586
5.7297873 -6.3852015 0.19550771
5.7066612 -6.1332545 0.20195644
5.7271724 -5.9446177 0.19669347
5.8009024 -5.8241396 0.17715639
5.9115348 -5.7467856 0.14772563
6.0411849 -5.6888123 0.1131994
6.2181587 -5.6775002 0.065994836
6.4102111 -5.6754169 0.014756779
6.5474114 -5.6134305 -0.021780541
7.3363566 -6.1583886 -0.23289084
7.3300805 -5.9399734 -0.23097347
7.3480258 -5.7494693 -0.23554912
5.7537751 -7.5915699 0.21273375
5.7430367 -7.2964029 0.21579309
5.7352118 -7.0202088 0.2180663
5.7775688 -6.8265805 0.20690888
5.7318797 -6.5230799 0.21929301
5.7260208 -6.2856641 0.22102028
5.7074809 -6.0428267 0.22613037
5.7455001 -5.8782344 0.21611217
5.8375015 -5.7811589 0.19165729
5.9474468 -5.7045383 0.16240503
6.0764132 -5.6473441 0.12806781
6.3617606 -5.7502103 0.051929697
6.4440956 -5.6355553 0.030063532
6.6370521 -5.6290598 -0.021372318
7.383182 -6.1338077 -0.22063255
5.7252727 -7.6355019 0.23181264
5.7442737 -7.3815145 0.2268301
5.7338529 -7.0966048 0.22970465
5.7268023 -6.8304868 0.23167312
5.7298913 -6.5906854 0.23093094
5.7264032 -6.3529 0.23194052
5.7041626 -6.1018362 0.23795904
5.7312875 -5.9221354 0.23078848
5.8177018 -5.8183942 0.20778252
5.9086132 -5.720726 0.18357521
6.0441818 -5.6724439 0.14744212
6.2742243 -5.7210727 0.086079136
6.4661932 -5.7209239 0.034886617
6.5408998 -5.5982499 0.015008522
7.3382139 -6.1654549 -0.1978182
5.7159967 -7.4415259 0.24144924
5.7247934 -7.1809459 0.23909894
5.7149854 -6.9061651 0.24171418
5.7148056 -6.6579857 0.24175884
5.7670794 -6.4909077 0.22780742
5.7000031 -6.1760631 0.2457085
5.7043591 -5.9654698 0.24454494
5.7726521 -5.8398252 0.22631705
5.8704233 -5.7507825 0.2002203
5.986393 -5.6819696 0.1692642
6.1283441 -5.6395583 0.13137524
6.4203424 -5.7496529 0.053429935
6.4679565 -5.6001873 0.040720481
6.7096457 -5.6422005 -0.023796983
7.4201288 -6.1131954 -0.21345788
5.737 -7.5259209 0.25064233
5.7377553 -7.2484336 0.25035366
5.7418413 -6.9895816 0.24918285
5.7959805 -6.813364 0.23465548
5.7518401 -6.5101933 0.24636607
5.7289791 -6.249959 0.25239795
5.7172341 -6.0157747 0.25546786
5.7679238 -5.8677769 0.2418744
5.8597846 -5.7723327 0.21728778
5.9694352 -5.6975284 0.18795386
6.0979495 -5.6423211 0.15357889
6.3747611 -5.7414646 0.079603381
6.4226608 -5.59341 0.066754624
6.6210723 -5.5971889 0.013707829
7.2690735 -6.0221472 -0.15941375
5.7407608 -7.6350713 0.25461131
5.7342286 -7.3402286 0.25624472
5.7358122 -7.0726295 0.25571463
5.7298689 -6.8072639 0.25720528
5.722261 -6.5523272 0.25914431
5.719408 -6.3155766 0.25981995
5.6979256 -6.0654001 0.26547748
5.7252374 -5.8870502 0.25810242
5.8175435 -5.7927675 0.23336092
5.914577 -5.7043943 0.20735879
6.0429621 -5.6509218 0.17297292
6.2915792 -5.7242918 0.10645125
6.4828095 -5.7265739 0.055261422
6.537004 -5.5844259 0.040700831
5.7258463 -7.7023768 0.26586416
5.7327571 -7.4239039 0.26387653
5.7208433 -7.1310816 0.26692963
5.7061253 -6.8491697 0.27073836
5.7292352 -6.6344252 0.26444408
5.7582951 -6.4368653 0.25656223
5.686172 -6.114893 0.27574268
5.727303 -5.9521422 0.26464462
5.7894192 -5.8202629 0.24793376
5.886858 -5.7329822 0.22177543
5.9958372 -5.6587296 0.19252966
6.1502404 -5.6331592 0.15112968
6.4336696 -5.7394962 0.075203367
6.4402542 -5.5492859 0.073351718
6.6728959 -5.5882568 0.011004565
7.3136845 -6.0064058 -0.16057959
5.7483082 -7.5076799 0.27061027
5.7288046 -7.1976833 0.2757704
5.7224283 -6.9235568 0.2774218
5.7932162 -6.7734318 0.258407
5.7559948 -6.4789243 0.26832727
5.7103424 -6.1878924 0.28051379
5.7291274 -5.9939504 0.27543932
5.7737985 -5.8396063 0.2634328
5.8652883 -5.7459784 0.23888198
5.9873152 -5.6880455 0.20615125
6.1088481 -5.627449 0.17355293
6.3771563 -5.722724 0.10161685
6.4115567 -5.5620193 0.092366569
6.6086292 -5.568871 0.039517019
5.7293525 -7.5752792 0.28347823
5.7234755 -7.2815337 0.28501758
5.7200537 -7.006875 0.2858991
5.7591872 -6.8079786 0.27538839
5.7299953 -6.5213032 0.28317964
5.7102084 -6.2616458 0.28845581
5.7071199 -6.0361047 0.28926176
5.7469087 -5.8744426 0.27858138
5.8327575 -5.7741356 0.25556445
5.935802 -5.6950235 0.22793715
6.0571651 -5.6361065 0.19540325
6.2510047 -5.6544585 0.14344844
6.4672213 -5.6889272 0.08549764
6.5142155 -5.5417199 0.072893016
6.7607298 -5.5945659 0.0068206084
5.7216659 -7.6682706 0.29288539
5.7192006 -7.3739233 0.29359999
5.7136407 -7.0903707 0.29514343
5.6999621 -6.8093262 0.29886073
5.7122316 -6.5796065 0.29562923
5.7123876 -6.3435717 0.29564294
5.6882195 -6.0859141 0.30217138
5.7235184 -5.9167304 0.29277104
5.7978997 -5.8018603 0.27290383
5.9014401 -5.7239099 0.24522823
6.0166779 -5.6588807 0.21442048
6.1508965 -5.6134057 0.17852901
6.3922262 -5.6800895 0.11395198
6.4327579 -5.5272098 0.10315529
6.657043 -5.5625196 0.043146942
5.7392917 -7.7611775 0.30629936
5.7401457 -7.4662571 0.30612776
5.7271647 -7.165391 0.30964851
5.7218466 -6.8920946 0.31112182
5.8094578 -6.7679687 0.28776702
5.7280517 -6.4093513 0.30956578
5.7005572 -6.1432214 0.31695959
5.7315249 -5.9663081 0.3087365
5.7947245 -5.8365421 0.29190505
5.8799896 -5.7367992 0.26917759
6.0016308 -5.6807647 0.23673265
6.1228132 -5.6220813 0.20441166
6.2965908 -5.6188793 0.15804529
6.4041448 -5.5396304 0.12936378
6.5931282 -5.5424786 0.078933768
6.8677249 -5.6229162 0.0056386562
5.7432795 -7.558301 0.31844711
5.7284269 -7.2483687 0.32240224
5.715323 -6.9579482 0.32589349
5.787817 -6.8097172 0.30657792
5.7263989 -6.4746804 0.32294571
5.7073426 -6.2159915 0.32802808
5.7225189 -6.015265 0.32398969
5.7626619 -5.8548365 0.31329829
5.8545656 -5.7638702 0.28881443
5.9637637 -5.6940513 0.25971949
6.0849233 -5.6369343 0.22743671
6.2253399 -5.5991421 0.19002444
6.4530344 -5.6516681 0.1293485
6.5203223 -5.5276074 0.11142544
6.7931733 -5.6116514 0.038713191
7.155077 -5.7694826 -0.057733979
5.7235532 -7.63274 0.33182529
5.7221966 -7.3392038 0.33218727
5.7070303 -7.0397601 0.33622733
5.7104788 -6.7844224 0.33531556
5.7179031 -6.5474639 0.33334383
5.7015305 -6.2882042 0.3377071
5.6954327 -6.0554256 0.33933881
5.7429004 -5.9031978 0.32671237
5.8234148 -5.7974873 0.30529103
5.9205346 -5.7135239 0.27944997
6.041779 -5.6578307 0.24718715
6.1690865 -5.6068797 0.21331017
6.3492532 -5.611167 0.16536509
6.4566646 -5.5320277 0.13678347
6.6455331 -5.5349851 0.086520649
6.9480324 -5.6431198 0.0060101449
5.7479482 -7.722611 0.34020135
5.7447286 -7.4200349 0.34113413
5.7326994 -7.1200023 0.34440857
5.7119541 -6.822732 0.35000068
5.8098159 -6.7170315 0.32401434
5.7353816 -6.3669462 0.34389511
5.7144365 -6.1096144 0.34953421
5.7455902 -5.9339204 0.34130096
5.8207636 -5.8212328 0.32134861
5.9183092 -5.7383313 0.29544154
6.0207777 -5.6612301 0.26822534
6.1607881 -5.6268268 0.23101455
6.3010659 -5.5890713 0.19373263
6.4281406 -5.5335488 0.1599662
6.5958052 -5.5176191 0.11539804
6.8894391 -5.6225033 0.037303858
5.7326522 -7.8050299 0.35018837
5.7428017 -7.5190544 0.34759223
5.7187772 -7.1929603 0.35409608
5.7117658 -6.9118295 0.35606122
5.805932 -6.7981687 0.33107617
5.7295566 -6.4387836 0.35151166
5.6941295 -6.1567273 0.36103579
5.726933 -5.9812136 0.3523854
5.7972217 -5.8612633 0.33375153
5.8832345 -5.7637768 0.31092945
5.9923921 -5.6954327 0.28194278
6.1134315 -5.6398873 0.24979463
6.2405357 -5.5890923 0.21603066
6.4138832 -5.5862441 0.16995481
6.5412564 -5.5288305 0.13611899
6.8128195 -5.6158867 0.063897677
7.1448603 -5.7499046 -0.024424631
5.7581968 -7.9483914 0.35120118
5.747592 -7.6185694 0.35411695
5.7272444 -7.2916346 0.35962346
5.7182784 -7.0014005 0.36209458
5.7278628 -6.7552648 0.35961625
5.736053 -6.5191703 0.35750884
5.6866083 -6.2120075 0.37075666
5.7152867 -6.0285921 0.36318183
5.7807093 -5.9012818 0.34581596
5.8553262 -5.7890148 0.32599813
5.9647322 -5.7218699 0.29690951
6.0669184 -5.6449766 0.26974696
6.200201 -5.6033416 0.23429649
6.35326 -5.5805554 0.19358018
6.4801922 -5.5251298 0.15982369
6.6681938 -5.530519 0.10979785
6.9342923 -5.6072865 0.038968056
5.7667947 -8.0310593 0.36220336
5.7548232 -7.6920953 0.36546263
5.7378364 -7.364625 0.37005702
5.7267256 -7.0655131 0.37308213
5.7068872 -6.7691188 0.37843025
5.8259578 -6.6983404 0.34674999
5.7198577 -6.2994289 0.37509316
5.7107568 -6.0593486 0.37757558
5.7712679 -5.9247913 0.36150038
5.8526044 -5.8212357 0.33987555
5.9440613 -5.7320209 0.31555247
6.0526743 -5.6641035 0.28665614
6.1859593 -5.6239991 0.25118431
6.3193035 -5.5807958 0.21569757
6.4592819 -5.5417457 0.17844269
6.6129537 -5.5136046 0.13753553
6.8980131 -5.6149006 0.061613031
5.7396488 -7.7656894 0.37671506
5.740849 -7.4634571 0.37644973
5.7229786 -7.146647 0.38126522
5.7063012 -6.8496141 0.38576299
5.8266087 -6.7794313 0.35372218
5.7300339 -6.3872814 0.37952465
5.7010417 -6.1141367 0.38730282
5.7570992 -5.9719267 0.37239537
5.8453169 -5.8768959 0.34890902
5.9195127 -5.7649484 0.32916382
6.0223069 -5.6904583 0.30179152
6.1429467 -5.6366735 0.26965865
6.2760868 -5.5951281 0.23419411
6.3895016 -5.5285263 0.20398884
6.5490799 -5.5099306 0.16147448
6.9006281 -5.6854305 0.067768291
7.065165 -5.6551113 0.02393388
5.7165828 -7.8391194 0.38852078
5.7307773 -7.5538039 0.38481563
5.7165213 -7.2362995 0.38869822
5.6980877 -6.9301362 0.39369223
5.7505436 -6.75208 0.37977052
5.7764521 -6.5412898 0.37293118
5.6845369 -6.168725 0.39752761
5.7421384 -6.026814 0.38222945
5.8138857 -5.9085507 0.36315846
5.8829532 -5.789546 0.34479874
5.9800425 -5.7084718 0.31896451
6.1008229 -5.656106 0.2868104
6.2276039 -5.6086149 0.25305569
6.3541884 -5.558249 0.21935278
6.5071049 -5.5340614 0.17862737
6.7148027 -5.563149 0.12328901
6.9456444 -5.6074281 0.06177859
5.7430034 -7.9466615 0.39624783
5.7655125 -7.6694584 0.39030293
5.7402439 -7.325315 0.39710015
5.7302828 -7.0269327 0.39981335
5.711597 -6.731216 0.40485451
5.8785124 -6.7370152 0.36038336
5.7037268 -6.2306218 0.40705755
5.7345076 -6.0484443 0.39889869
5.8417549 -5.9789772 0.37034243
5.912303 -5.8601699 0.35157654
5.9801698 -5.7406449 0.33352318
6.0825949 -5.6664681 0.30625561
6.2091975 -5.6205502 0.27253529
6.3485646 -5.5866528 0.23541325
6.4684672 -5.5274653 0.20348576
6.6347737 -5.5160317 0.15917836
6.9114113 -5.6134982 0.085449934
5.7388916 -8.0365191 0.40867439
5.7360563 -7.7067723 0.40943256
5.7332206 -7.3968973 0.41019261
5.721252 -7.0895438 0.41338474
5.7106085 -6.801827 0.41622502
5.8407483 -6.7503262 0.38157657
5.6970525 -6.2839103 0.41985258
5.7239957 -6.0936699 0.41268614
5.8262029 -6.0170164 0.3854754
5.8918476 -5.8908963 0.36800516
5.9605584 -5.7720857 0.34971422
6.0634489 -5.6989317 0.32232273
6.177752 -5.6390314 0.29188919
6.3106098 -5.5992236 0.25651503
6.4370093 -5.5489478 0.22286282
6.5897369 -5.5248351 0.1821962
6.8987856 -5.6610513 0.099891879
7.103714 -5.6754818 0.045320358
5.7506437 -7.8483734 0.41273069
5.7183266 -7.4768076 0.42129529
5.7096081 -7.1689172 0.42358413
5.7071667 -6.8891425 0.42420754
5.7491689 -6.695601 0.41300637
5.7427402 -6.4363403 0.4146941
5.7122679 -6.1548128 0.42278162
5.7927999 -6.046382 0.40133381
5.9174461 -6.0008564 0.36814973
5.9407721 -5.8186283 0.36192581
6.0200686 -5.7151804 0.34080699
6.1282568 -5.6489644 0.31200099
6.2609177 -5.6107879 0.27668238
6.3936663 -5.5695295 0.24133909
6.5264487 -5.5251698 0.20598723
6.7866559 -5.614459 0.13671654
6.9967093 -5.6393771 0.080794625
5.7645884 -7.9195557 0.4243091
5.7549009 -7.5822053 0.42689309
5.7302442 -7.2390871 0.43346488
5.720552 -6.9418883 0.43605202
5.7280798 -6.6894975 0.43405554
5.877666 -6.672523 0.39424694
5.7105765 -6.174099 0.43873402
5.7692766 -6.0340047 0.42311981
5.9049568 -6.0062575 0.38701358
5.9527373 -5.8564062 0.37430361
6.0629458 -5.7927885 0.34497762
6.1231632 -5.6652327 0.32895884
6.2494631 -5.6209388 0.29534879
6.3948331 -5.5962791 0.25666189
6.5081401 -5.5311856 0.22651146
6.6871972 -5.5362654 0.17885673
6.9356055 -5.6078758 0.11273841
5.7443051 -8.0006495 0.43597966
5.7429414 -7.671556 0.43638706
5.7269416 -7.3363667 0.44069079
5.72083 -7.0384693 0.44236147
5.7213116 -6.7685475 0.44227585
5.8349843 -6.6937346 0.41205868
5.6988807 -6.235476 0.44833297
5.7647758 -6.1038008 0.43083367
5.8785872 -6.0445008 0.4005793
5.9974632 -5.9909291 0.36897567
6.0444531 -5.8403268 0.35651103
6.0877037 -5.6898818 0.34504086
6.2079673 -5.639276 0.31306905
6.3405452 -5.6011572 0.27781796
6.4667578 -5.5525255 0.24426207
6.6059351 -5.5156631 0.20725745
6.8996897 -5.6409407 0.12910499
7.1512928 -5.707715 0.062170327
