# .PCD v0.7 - Point Cloud Data file format
VERSION 0.7
FIELDS x y z
SIZE 4 4 4
TYPE F F F
COUNT 1 1 1
WIDTH 69
HEIGHT 1
VIEWPOINT 0 0 0 1 0 0 0
POINTS 69
DATA ascii
3.6718967 -6.451395 -0.22995995
3.6946168 -6.2508321 -0.23305039
3.7488637 -6.4679594 -0.23089929
3.7718306 -6.2670093 -0.23405312
3.814903 -6.6805053 -0.22252412
3.8357997 -6.4713368 -0.22507414
3.8516543 -6.2635031 -0.22635642
3.8769484 -6.6631999 -0.2168406
3.9045753 -6.4611473 -0.22121496
3.9273987 -6.260169 -0.22438024
3.9333558 -6.567687 -0.21975929
3.9586515 -6.3660226 -0.22358364
3.9719639 -6.1588311 -0.22428462
3.9346981 -6.6599064 -0.21585916
3.9622252 -6.4578395 -0.22027215
3.9849412 -6.2568493 -0.22347641
3.9989312 -6.5495181 -0.21681795
4.023869 -6.348104 -0.22060215
4.0368252 -6.1411538 -0.22126114
4.0420747 -6.532959 -0.21503814
4.073801 -6.3385844 -0.22068812
4.0721712 -6.1184382 -0.21749911
4.0686097 -6.6260662 -0.21177649
4.0955501 -6.4244852 -0.21615654
4.1176972 -6.2240076 -0.21932361
4.120573 -6.0115285 -0.21741697
4.1102381 -6.5237284 -0.21602082
4.1276159 -6.3158836 -0.21793813
4.1399918 -6.1094427 -0.21859206
4.1811213 -6.513629 -0.22409786
4.1983275 -6.3059044 -0.22601295
4.2177458 -6.1062555 -0.2285942
4.2182269 -6.4045892 -0.22742264
4.2328219 -6.1976237 -0.22869475
4.2434349 -6.5182304 -0.2314751
4.2606659 -6.3103843 -0.23346083
4.2801013 -6.1105995 -0.23611239
4.3096724 -6.4168091 -0.23365222
4.3244352 -6.2095871 -0.23505235
4.3773718 -6.4220195 -0.23309281
4.39221 -6.2146583 -0.23464543
4.427403 -6.3991342 -0.22674085
4.4489865 -6.1988807 -0.23023467
4.4899607 -6.383739 -0.2292472
4.5113053 -6.1837382 -0.23270065
4.5253606 -6.2761879 -0.23266271
4.5441928 -6.0769153 -0.2354784
4.5360718 -6.376483 -0.23433898
4.5572557 -6.1766148 -0.2377885
4.5854321 -6.2641325 -0.23543666
4.6040416 -6.065125 -0.23825581
4.5901232 -6.3592963 -0.23333758
4.6182423 -6.1665535 -0.23873864
4.6319551 -6.2610221 -0.23569077
4.6505389 -6.0621495 -0.23860528
4.6763053 -6.3688684 -0.23512372
4.6831636 -6.155818 -0.23493934
4.6897736 -6.2493162 -0.23172116
4.7081699 -6.0507131 -0.23478152
4.717288 -6.3640461 -0.2342931
4.7383809 -6.1645951 -0.23809691
4.7767696 -6.2655478 -0.23804417
4.8049297 -6.3738379 -0.23867583
4.8118796 -6.1607966 -0.23873217
4.8377852 -6.2758269 -0.24182089
4.8850317 -6.3850303 -0.24224132
4.8993192 -6.1786032 -0.24433377
4.9198637 -6.2878313 -0.2446138
4.9459291 -6.3965497 -0.24372037
