# .PCD v0.7 - Point Cloud Data file format
VERSION 0.7
FIELDS x y z
SIZE 4 4 4
TYPE F F F
COUNT 1 1 1
WIDTH 65
HEIGHT 1
VIEWPOINT 0 0 0 1 0 0 0
POINTS 65
DATA ascii
-3.9881933 3.2020221 0.56815726
-3.9642355 3.1942973 0.57861495
-3.9857299 3.1359632 0.63265151
-3.9541962 2.7996731 0.65208316
-3.9563148 3.1186237 0.6570484
-3.9838912 2.8162677 0.66137707
-3.8735855 2.8237097 0.64205474
-3.9925027 2.8381412 0.668863
-3.9990633 3.0443456 0.67326581
-3.9148769 2.8107367 0.66030478
-3.9785817 2.8652744 0.67536294
-3.8957827 3.1469142 0.66079015
-3.7798963 2.8349605 0.63730043
-3.9304247 2.8257806 0.67097008
-3.9942987 2.8793213 0.68607962
-3.8248947 2.8396189 0.65199292
-3.9203045 2.8706787 0.67387873
-3.8535359 2.7411854 0.66616839
-3.9161458 2.79544 0.68104243
-3.8556225 2.9460773 0.66963935
-3.8025 2.6960278 0.66685164
-3.8644576 2.750546 0.68161017
-3.9271402 2.8036687 0.69650936
-3.7214465 3.0717719 0.65429968
-3.6878927 2.7021847 0.65155339
-3.7183471 2.7815886 0.65961826
-3.8601348 2.7770426 0.69142145
-3.8535559 2.8844824 0.69159138
-3.8113706 3.0242338 0.68425131
-3.6744506 2.7297015 0.66110164
-3.7448974 2.7791443 0.67774326
-3.8859854 2.7724698 0.70939076
-3.7105522 3.0151985 0.67377335
-3.8531444 3.0057914 0.70571846
-3.5806439 2.7290366 0.64597213
-3.7148256 2.7332737 0.67624754
-3.8636467 2.7216055 0.70956409
-3.8948388 2.7972097 0.7178098
-3.7137635 3.0476015 0.68109304
-3.8412704 3.049696 0.70983297
-3.9063513 2.7408035 0.73362285
-3.7090433 3.0024548 0.69342995
-3.805675 3.0291712 0.71566075
-3.8427548 3.1055171 0.72527766
-3.9648268 2.7032452 0.75795585
-3.7003665 3.0220399 0.70351362
-3.8194091 3.02825 0.73050386
-3.8197625 3.1365271 0.73238099
-3.9225357 2.6727939 0.75167441
-3.7622683 2.9016848 0.71923184
-3.7066469 3.0539918 0.70918185
-3.8034904 3.0786967 0.73149329
-3.8270259 3.1674011 0.73828787
-3.8085537 2.7828846 0.73670983
-3.7122135 2.9643891 0.71793509
-3.7256336 3.0597613 0.72256774
-3.7927539 3.1094222 0.73859525
-3.9381521 2.6878109 0.77412635
-3.6831319 3.0015652 0.72147053
-3.7869761 3.126189 0.74709141
-3.7201107 3.0004563 0.73569381
-3.6487122 2.9619064 0.73098087
-3.6772115 3.0434544 0.73880106
-3.6694016 2.9800158 0.74040222
-3.6631289 3.0106916 0.74716765
