# .PCD v0.7 - Point Cloud Data file format
VERSION 0.7
FIELDS x y z
SIZE 4 4 4
TYPE F F F
COUNT 1 1 1
WIDTH 118
HEIGHT 1
VIEWPOINT 0 0 0 1 0 0 0
POINTS 118
DATA ascii
7.1375747 74.169548 -0.077695981
7.2697387 74.283501 -0.10969569
7.9762278 74.595192 -0.28937376
7.3247852 74.323074 -0.12734844
8.0859356 74.700729 -0.3277308
7.4550424 74.377151 -0.18106805
8.1724157 74.716042 -0.38082692
7.5530596 74.394279 -0.25934923
8.2712345 74.772438 -0.46258375
7.6383066 74.470184 -0.31281829
8.3750105 74.78846 -0.51033127
7.7508593 74.535492 -0.34858614
8.4772072 74.891785 -0.5406993
7.8706002 74.558914 -0.37763676
8.6175947 74.91349 -0.58040458
7.2593036 74.2994 -0.22542757
7.9685602 74.613113 -0.42249009
8.746768 75.035889 -0.66951996
7.3753881 74.333801 -0.31079715
8.0777092 74.597183 -0.52792972
7.4506083 74.330734 -0.38351464
8.1613302 74.694122 -0.57048339
7.544683 74.348129 -0.40420252
8.2623596 74.750366 -0.59051371
7.642189 74.415085 -0.43098062
8.3672218 74.796959 -0.62805581
8.4674473 74.85466 -0.63472468
7.8973241 74.549889 -0.47573584
8.6171999 74.922012 -0.67070884
7.262167 74.278969 -0.3135958
7.9566483 74.58847 -0.51043713
8.6972246 75.049911 -0.70356107
7.32444 74.268272 -0.34200281
8.0569324 74.625931 -0.57080299
7.4114366 74.336334 -0.41062379
8.1373997 74.676094 -0.61642998
7.482121 74.366806 -0.44808695
7.5462909 74.365845 -0.44714916
8.2859478 74.774124 -0.63060558
7.6281095 74.394951 -0.44939196
8.3798695 74.822083 -0.63713467
8.4712658 74.857101 -0.65692919
7.8910589 74.522453 -0.50110084
8.6221619 74.926178 -0.69822079
7.2699585 74.244003 -0.33870897
8.0060377 74.614616 -0.53619725
8.7514277 74.979179 -0.7316798
7.405158 74.367615 -0.37337124
8.1212597 74.719841 -0.56316805
7.4722743 74.375641 -0.38405767
8.2085524 74.68808 -0.54242855
8.275115 74.757317 -0.52829123
9.0137339 75.124153 -0.6945504
7.6596951 74.463379 -0.33391452
8.3532581 74.75663 -0.51467103
9.0799313 75.152786 -0.69860196
7.7252741 74.492203 -0.33816546
8.4130421 74.77681 -0.52133101
9.140049 75.195412 -0.7005927
7.7801356 74.494812 -0.34063596
8.4635906 74.850426 -0.5172565
9.1733351 75.181366 -0.68875009
7.8158388 74.499832 -0.33083823
9.2093306 75.244827 -0.69294024
7.8468456 74.523163 -0.33404222
8.5566244 74.840012 -0.51523292
9.2568541 75.228569 -0.69715309
7.9044042 74.595871 -0.34021232
8.6096334 74.900848 -0.51768661
7.268641 74.245201 -0.16371819
7.9698915 74.607819 -0.344098
8.6705198 74.923187 -0.52919698
7.3303204 74.277206 -0.17505063
8.0234108 74.688164 -0.36087361
8.7359877 74.964554 -0.5526228
7.3971152 74.338394 -0.19852418
8.0887203 74.670723 -0.38310498
8.790905 74.975693 -0.56343794
7.4548779 74.379272 -0.20973058
8.1814861 74.739334 -0.40120745
8.8831844 75.053085 -0.59865665
7.5400658 74.397469 -0.24284624
8.2428417 74.718201 -0.44056866
8.9646473 75.062721 -0.64441317
7.6224723 74.417244 -0.28786808
8.3211746 74.828613 -0.48058674
9.0070705 75.134293 -0.66438055
7.659173 74.438934 -0.30579931
8.3799372 74.830956 -0.47773218
8.4278021 74.822121 -0.46054959
9.182374 75.264542 -0.64578587
7.8317547 74.559189 -0.28587779
8.5350876 74.898766 -0.47198617
7.2011099 74.220558 -0.11661864
8.6350546 74.956314 -0.51646608
7.9934597 74.626007 -0.36491346
8.6843987 74.996674 -0.56969678
8.0603313 74.687248 -0.40456766
8.7464314 74.979546 -0.59096479
7.418529 74.381325 -0.23475032
8.1018829 74.72924 -0.40804449
8.8250656 75.06073 -0.57540107
8.1762772 74.709801 -0.37698868
8.8998985 75.119324 -0.53806335
8.2717466 74.768723 -0.36624718
8.9753428 75.109642 -0.54784065
8.3235226 74.839378 -0.35988915
9.020649 75.134102 -0.50893199
8.3797045 74.863503 -0.33026192
9.0738335 75.195015 -0.51273638
8.4517651 74.864639 -0.34035185
9.149991 75.235809 -0.51950991
8.5079594 74.925156 -0.33842441
9.2166138 75.247711 -0.52321506
8.5624905 74.927971 -0.35150206
9.2433109 75.281044 -0.53370625
8.6157913 74.961258 -0.33259425
9.3158531 75.334045 -0.50887436
