# .PCD v0.7 - Point Cloud Data file format
VERSION 0.7
FIELDS x y z
SIZE 4 4 4
TYPE F F F
COUNT 1 1 1
WIDTH 196
HEIGHT 1
VIEWPOINT 0 0 0 1 0 0 0
POINTS 196
DATA ascii
-3.3129067 13.179374 0.078759022
-3.2634184 13.137649 0.090708978
-3.3247249 13.251649 0.11083879
-3.2394378 13.043083 0.099174634
-3.2812018 13.17399 0.11386393
-3.7206469 13.087754 0.20835187
-3.2424951 13.094509 0.11604799
-3.7768102 13.143029 0.22878733
-3.3106804 13.197502 0.13434233
-3.6524954 13.069676 0.20499586
-3.200608 13.057865 0.11892338
-3.7208307 13.132816 0.2294874
-3.2572501 13.10515 0.14279673
-3.7942696 13.139102 0.25693089
-3.2984092 13.260917 0.15822768
-3.6857042 13.030844 0.2377868
-3.2232864 13.078241 0.14543569
-3.726269 13.184191 0.25338486
-3.3287995 13.047174 0.17943479
-3.1656516 13.026347 0.15598299
-3.3409956 13.238604 0.19575684
-3.7122481 13.031389 0.27244154
-3.3245118 12.940531 0.19744584
-3.3720491 13.01447 0.23226587
-3.6649396 12.968469 0.29394361
-3.209578 13.021414 0.20823413
-3.7339602 13.065754 0.32008311
-3.3733461 12.888007 0.25236496
-3.4457688 12.926441 0.28441757
-3.6870387 12.985773 0.33629304
-3.2983968 12.899938 0.26075262
-3.5851567 12.861803 0.32107288
-3.4137468 12.891139 0.29328147
-3.6463258 12.968317 0.3436127
-3.549612 12.79289 0.34255055
-3.7087588 13.03125 0.37957856
-3.4668548 12.857944 0.34693021
-3.6867137 12.95947 0.3950597
-3.2399151 12.95184 0.31525049
-3.5948391 12.75557 0.38793933
-3.7040405 13.111083 0.41614661
-3.3633945 12.933216 0.34623408
-3.6717525 12.833825 0.41043708
-3.5426164 12.747774 0.39106753
-3.7100084 12.965354 0.42977527
-3.3052826 12.901495 0.35091501
-3.6444886 12.728303 0.42091382
-3.7632277 13.063625 0.45102406
-3.3999295 12.926523 0.37764075
-3.659652 12.933849 0.43329722
-3.8509693 13.10254 0.47661218
-3.2216911 12.976323 0.34480056
-3.5976269 12.721131 0.42170551
-3.7505119 12.973289 0.4580363
-3.3275032 12.939094 0.37942627
-3.6647398 12.762423 0.44927731
-3.8123164 13.03157 0.48482203
-3.483937 12.807101 0.42329574
-3.6838121 12.948994 0.4682807
-3.3150144 12.849633 0.39473259
-3.6390331 12.699697 0.46204337
-3.8004539 12.931255 0.50004482
-3.3688433 12.90963 0.42672604
-3.6538606 12.849093 0.48681784
-3.8662183 12.959004 0.53386551
-3.1887114 12.97927 0.39728004
-3.5574033 12.72898 0.47235581
-3.7416537 12.905081 0.5143078
-3.3279803 12.882631 0.43564001
-3.6579058 12.711041 0.50357133
-3.8026228 12.987285 0.53855425
-3.4438586 12.858557 0.46884209
-3.6970165 12.868749 0.52305764
-3.9524403 12.864507 0.57754338
-3.2511077 12.893567 0.43934205
-3.5811243 12.721882 0.5074482
-3.7551215 12.923715 0.54775506
-3.4653428 12.824178 0.48640761
-3.6916714 12.896488 0.53651524
-3.2925045 12.850114 0.45127189
-3.6117315 12.693289 0.51844001
-3.7930729 12.874345 0.5606432
-3.384445 12.878227 0.47451991
-3.6876051 12.755644 0.53886449
-3.8985257 12.860297 0.58647913
-3.5012138 12.766583 0.50603175
-3.7227459 12.845503 0.55575025
-3.3025017 12.897127 0.46498328
-3.6456525 12.67235 0.5369907
-3.8032708 12.916866 0.57515031
-3.4075043 12.868975 0.49597821
-3.7049813 12.7526 0.55959427
-3.5566778 12.69086 0.53891802
-3.7525978 12.832489 0.58394563
-3.3061771 12.933844 0.49672386
-3.6613712 12.66856 0.57071048
-3.8169491 12.920716 0.60847372
-3.4538665 12.820869 0.53584498
-3.7038946 12.82289 0.59062493
-3.5827148 12.68801 0.57594365
-3.7724283 12.846305 0.61970079
-3.3220103 12.951511 0.53299308
-3.6571085 12.729612 0.60299915
-3.8645687 12.839067 0.64992398
-3.4845891 12.799474 0.57223696
-3.7301908 12.808176 0.62599403
-3.2226355 13.01707 0.52970624
-3.6002657 12.68317 0.60742515
-3.7740941 12.886552 0.6482935
-3.3701985 12.912461 0.56266648
-3.6817405 12.743328 0.62838203
-3.520165 12.758386 0.60118383
-3.7412992 12.830278 0.65057147
-3.2723174 12.97052 0.55373365
-3.6216376 12.69826 0.62670469
-3.7839212 12.937641 0.66567397
-3.4008265 12.89225 0.58346224
-3.6734734 12.823454 0.6425947
-3.1954498 13.009045 0.54457182
-3.5485685 12.72753 0.61881649
-3.7465489 12.863014 0.6644966
-3.3171167 12.932389 0.57420486
-3.6263125 12.759962 0.6405378
-3.7973187 12.978906 0.68155235
-3.1308088 13.021681 0.54145789
-3.4334912 12.880984 0.60690755
-3.6947587 12.837552 0.66449183
-3.2627501 12.942964 0.57734978
-3.5720189 12.770474 0.64379478
-3.7619059 12.932481 0.68834823
-3.3728733 12.844196 0.61519814
-3.6207802 12.838288 0.67025411
-3.7731709 13.122409 0.70811254
-3.2212434 12.869288 0.58837867
-3.4768853 12.847128 0.64483958
-3.7085805 12.886191 0.69683313
-3.3005381 12.891922 0.61685729
-3.5651958 12.838954 0.67488199
-3.7600355 12.989828 0.72024107
-3.1624629 12.824835 0.59879714
-3.4270504 12.773932 0.65679431
-3.635705 12.878839 0.70455718
-3.7730293 13.218721 0.73977762
-3.2488728 12.866475 0.62472194
-3.5035064 12.841557 0.68087804
-3.7075436 12.963757 0.72786182
-3.3415158 12.804828 0.65583128
-3.5600023 12.8813 0.70552874
-3.7180793 13.154285 0.74452692
-3.2033913 12.803137 0.62723732
-3.4536452 12.787132 0.6828261
-3.6476767 12.93744 0.72820199
-3.2769346 12.85278 0.64983636
-3.520915 12.853552 0.70441955
-3.7107651 13.021338 0.7492379
-3.1306622 12.794176 0.62487209
-3.3838382 12.768597 0.68127471
-3.5684457 12.947314 0.72516793
-3.7436037 13.171117 0.76757437
-3.2179346 12.805153 0.65262103
-3.4549263 12.824597 0.70611072
-3.6296458 13.039937 0.7483896
-3.3060238 12.853158 0.67888206
-3.5162175 12.956198 0.7275815
-3.7029629 13.141754 0.77219224
-3.1570406 12.823586 0.65540332
-3.4159777 12.776678 0.71292841
-3.583981 13.010819 0.75405884
-3.8113673 13.06044 0.80588108
-3.233171 12.833775 0.69040686
-3.4671178 12.860494 0.74339998
-3.6180065 13.160349 0.78178382
-3.3245187 12.823741 0.72423732
-3.511014 13.000809 0.76885009
-3.7327578 13.069489 0.81973714
-3.1600716 12.813863 0.70460534
-3.4057307 12.802319 0.75970322
-3.5670559 13.063525 0.8001141
-3.2474077 12.850405 0.73400795
-3.4724801 12.903503 0.78553575
-3.6150212 13.240376 0.82304782
-3.1910865 12.839547 0.73746014
-3.4335673 12.835326 0.79206628
-3.574923 13.17186 0.82942748
-3.2599485 12.847145 0.76612675
-3.4676571 12.955446 0.81481975
-3.1098177 12.876786 0.73652661
-3.3734412 12.805937 0.79497319
-3.2051048 12.836824 0.76662809
-3.443965 12.839789 0.82073146
-3.6091237 13.097909 0.86236382
-3.265717 12.87139 0.78834426
-3.2831416 12.885348 0.81465119
-3.1283867 12.889008 0.78841108
-3.0644078 12.860403 0.78828955
-3.2173195 12.929863 0.84373504
