# .PCD v0.7 - Point Cloud Data file format
VERSION 0.7
FIELDS x y z
SIZE 4 4 4
TYPE F F F
COUNT 1 1 1
WIDTH 1492
HEIGHT 1
VIEWPOINT 0 0 0 1 0 0 0
POINTS 1492
DATA ascii
3.4566648 -6.3260403 -0.21477601
2.5951123 -9.9678202 -0.040633552
2.7327843 -9.8128204 -0.073686346
2.9239349 -9.7486868 -0.12163942
3.1572695 -9.747345 -0.18122524
3.2558219 -9.5345488 -0.20349863
3.3624454 -7.0158911 -0.19633138
3.3991134 -6.8133111 -0.2029255
3.4309094 -6.6115942 -0.20828621
3.4648852 -6.4177408 -0.2143108
2.6944914 -9.8806114 -0.057745803
2.8608117 -9.7755833 -0.098845273
3.0778673 -9.7514257 -0.15401982
3.2905121 -9.7141132 -0.2078874
3.3100929 -9.3854914 -0.20841815
3.4219429 -7.1671524 -0.20677499
3.3812857 -6.8770504 -0.19242039
3.4694331 -6.7320399 -0.21298082
3.499047 -6.5304165 -0.21780272
3.5238512 -6.3298297 -0.22140695
2.6844611 -9.9733715 -0.046669506
2.8221343 -9.8182163 -0.079793766
3.0133188 -9.7538939 -0.12786122
3.2413838 -9.7440109 -0.18611406
3.3834984 -9.5970592 -0.2204895
3.4248204 -6.9907255 -0.19539058
3.4880526 -6.816998 -0.20920025
2.7750587 -9.8858128 -0.062956125
2.9363458 -9.7721329 -0.10272719
3.1586227 -9.7562437 -0.15945587
3.3659728 -9.7104387 -0.21195267
3.3798642 -9.3736143 -0.21092272
3.4698536 -7.1341586 -0.20344324
3.4419982 -6.8589282 -0.19255146
3.5571568 -6.7423677 -0.22046421
3.5869138 -6.5404835 -0.22533233
3.6118557 -6.3396292 -0.22898032
2.9123368 -9.8230124 -0.081227221
3.1036055 -9.7584944 -0.12933694
3.3317809 -9.748394 -0.18763591
3.4739385 -9.6012726 -0.22204663
3.4483728 -6.9214654 -0.17911069
3.5916932 -6.8342786 -0.21462877
2.9799829 -9.8363295 -0.07983014
3.1663373 -9.7631102 -0.12646602
3.3946776 -9.752799 -0.18467747
3.471225 -9.5067348 -0.20092525
3.5357704 -9.2528229 -0.21400017
3.510524 -7.1710095 -0.17948757
3.4246063 -6.8306227 -0.1529399
2.9692073 -9.9211998 -0.059313353
3.1209309 -9.7899599 -0.096241951
3.3331895 -9.756813 -0.14990948
3.5353205 -9.7024212 -0.20071158
3.5156164 -9.3165054 -0.19054246
3.4652922 -6.9362473 -0.14591041
3.5818579 -6.822135 -0.17409551
3.0714099 -9.8502207 -0.075084664
3.2424641 -9.7514715 -0.11735668
3.4706979 -9.7411642 -0.17536612
3.4702981 -9.3799591 -0.17048617
3.4468818 -7.0057497 -0.1330837
3.4646585 -6.7838397 -0.13467067
3.1532557 -9.8556814 -0.074532188
3.3244441 -9.7567701 -0.11681759
3.5207927 -9.6963282 -0.16601484
3.4921525 -9.2944803 -0.15345024
3.4639113 -6.936367 -0.11527931
3.5138369 -6.7517114 -0.12556015
3.1152115 -9.9242258 -0.054939739
3.2669694 -9.7927856 -0.091875926
3.4793415 -9.7593822 -0.14551277
3.4758306 -9.3902874 -0.1398419
3.4594738 -7.0127649 -0.10487977
3.4584596 -6.7698293 -0.1014714
3.2176235 -9.8612337 -0.074308947
3.3888941 -9.7621632 -0.11666375
3.4570434 -9.5018053 -0.13068269
3.5511768 -9.2913866 -0.15195972
3.4483814 -7.0957661 -0.097582407
3.4563928 -6.8597083 -0.096590459
3.1968215 -9.9203119 -0.055366915
3.3433516 -9.7803307 -0.090929851
3.5185878 -9.6883316 -0.13442113
3.4974809 -9.2951946 -0.12403087
3.4680114 -6.9271765 -0.086317725
3.5117347 -6.7365808 -0.09502884
3.2500846 -9.9092331 -0.055364735
3.4015436 -9.7777605 -0.092372693
3.4764254 -9.5267267 -0.10832939
3.5229776 -9.242959 -0.11664187
3.4515619 -7.0855799 -0.071254112
3.473381 -6.8653383 -0.074049734
3.3659782 -9.8302135 -0.071966238
3.5054934 -9.680829 -0.10576827
3.49194 -9.2965031 -0.09754099
3.4881968 -6.9483104 -0.067445122
3.5002351 -6.7218242 -0.06770733
3.3312073 -9.9157171 -0.057910819
3.4724805 -9.7671928 -0.092266269
3.4943364 -9.4325686 -0.093782939
3.4760582 -7.0232291 -0.059739895
3.4578846 -6.7594628 -0.051872369
3.4101107 -9.9128075 -0.06674882
3.499917 -9.6796446 -0.087044708
3.4885538 -9.2957687 -0.079483688
3.4966774 -7.2027521 -0.056270864
3.4714684 -6.9225092 -0.046391975
3.4969983 -6.7120953 -0.050416619
3.5109191 -9.8330545 -0.086267479
3.5044339 -9.4479618 -0.07996881
3.4671993 -7.2541094 -0.043992095
3.4757845 -7.0115309 -0.043286216
3.4522746 -6.7410784 -0.033971071
3.4770563 -9.9277344 -0.073955789
3.4744918 -9.5421324 -0.068723343
3.4924154 -9.2099504 -0.069414079
3.5457206 -7.4528303 -0.062342573
3.4528315 -7.0784545 -0.033910304
3.4572721 -6.8376384 -0.032198679
3.5202382 -6.6729164 -0.046508927
3.4828975 -9.6530571 -0.057637006
3.494169 -9.303565 -0.056482151
3.5481489 -7.5204711 -0.049663242
3.4586616 -7.1450438 -0.022155954
3.4779637 -6.9192014 -0.024511555
3.5042603 -6.7098136 -0.02886758
3.5318058 -6.508986 -0.033646319
3.49348 -9.566473 -0.03906649
3.4928277 -9.2010822 -0.034873258
3.5462198 -8.2947397 -0.038701899
3.518368 -7.9570193 -0.027775077
3.5281439 -7.6861882 -0.027318539
3.5305483 -7.4175053 -0.02497929
3.4763067 -7.0896397 -0.0073318514
3.4631667 -6.8267012 -0.0010340213
3.5007479 -6.6336193 -0.0086267358
3.4945354 -9.4452333 -0.016942389
3.5439365 -9.165246 -0.026810933
3.5320528 -8.8032951 -0.019945024
3.5207162 -8.4611092 -0.013426271
3.5277643 -8.162694 -0.012127945
3.509182 -7.8426499 -0.003962554
3.5110886 -7.5653939 -0.0015521825
3.4570668 -7.2281513 0.015975745
3.4612989 -6.9798231 0.017481368
3.4525824 -6.7260427 0.022398921
3.5013041 -6.5493622 0.011628031
3.5588892 -6.3877025 -0.0015963697
3.4699402 -9.6473541 0.0017608347
3.4953272 -9.3161821 -0.0013802708
3.5177991 -8.6604462 -0.00037169867
3.515053 -8.3363619 0.0037290133
3.5087326 -8.0232296 0.0086442968
3.5051234 -7.7289782 0.012659574
3.5051279 -7.4532022 0.015543237
3.467345 -7.1408744 0.028631246
3.4701238 -6.893765 0.030496007
3.4851737 -6.671515 0.028911691
3.5201397 -6.480721 0.021821784
3.6093531 -6.3568168 -6.8527122e-05
3.4830816 -9.4253902 0.0057566017
3.5079012 -9.1043015 0.0026548428
3.5235965 -8.7852859 0.0019079689
3.513958 -8.4437847 0.0079913139
3.5112221 -8.1299028 0.011988412
3.499619 -7.8187847 0.018268023
3.5025928 -7.5424891 0.020386562
3.4800415 -7.2449994 0.029374596
3.4613757 -6.966186 0.037155442
3.4786613 -6.7437449 0.034985472
3.4964991 -6.5303788 0.032576486
3.5607605 -6.3776717 0.017445037
3.7472379 -6.3630061 -0.030956058
3.4944346 -9.595377 0.0039647897
3.4783177 -9.1967373 0.012315346
3.4859943 -8.5270281 0.017279495
3.4919553 -8.2209463 0.018907972
3.4892931 -7.9173436 0.02276108
3.4838643 -7.6244392 0.027225612
3.4761646 -7.3421292 0.03217154
3.4666824 -7.0702991 0.037475009
3.4620657 -6.8165045 0.041321121
3.4757783 -6.5953922 0.040044878
3.5222764 -6.4206629 0.029732034
3.6366343 -6.3270607 0.00086885557
3.4893925 -9.6890059 0.015903197
3.4974248 -9.3239727 0.017558556
3.5154021 -8.9955416 0.016237164
3.5081391 -8.6443138 0.021749925
3.5070026 -8.3209934 0.025375037
3.5077844 -8.0167732 0.028301515
3.4999964 -7.7151532 0.033442147
3.4895635 -7.4243045 0.039163347
3.4650407 -7.1284146 0.048621431
3.4688401 -6.882215 0.050163466
3.4909437 -6.6686411 0.046583731
3.5138712 -6.4639378 0.042696532
3.6029315 -6.3419042 0.020666646
3.8085542 -6.3497391 -0.0331778
3.4838765 -9.4520264 0.02486934
3.4908686 -9.0974426 0.026638774
3.4980028 -8.7624168 0.028172828
3.4901655 -8.4216909 0.03368526
3.4835088 -8.100461 0.038691942
3.4902201 -7.8146024 0.039841559
3.477433 -7.5150251 0.046235055
3.4503205 -7.2104688 0.05643126
3.462889 -6.9716802 0.055571727
3.4690661 -6.7346964 0.056367241
3.4940922 -6.5299835 0.051899418
3.5716703 -6.3936272 0.03297792
3.6855934 -6.3005619 0.0040988601
3.4931459 -9.6057167 0.029997619
3.4849098 -9.2159204 0.035992894
3.5063059 -8.8971491 0.033520505
3.4922204 -8.5386782 0.040742833
3.4839859 -8.2083397 0.046153791
3.48296 -7.9055076 0.049404748
3.4790862 -7.613368 0.053298339
3.4786925 -7.3397913 0.056097206
3.4826667 -7.0843306 0.057572063
3.4735928 -6.8232942 0.062524289
3.4885178 -6.6029792 0.060781937
3.5294535 -6.4218793 0.051833738
3.6307597 -6.3154011 0.026318898
3.8556607 -6.3456883 -0.032953594
3.4986026 -9.3424559 0.046503145
3.5088763 -8.9975452 0.047011845
3.4987624 -8.6383886 0.053006917
3.494251 -8.3074074 0.05727163
3.502188 -8.0121994 0.057933915
3.4905748 -7.7030811 0.063860834
3.481719 -7.4129529 0.068887256
3.4706349 -7.1334829 0.074401192
3.4759026 -6.887969 0.075306393
3.4930141 -6.6675797 0.072865352
3.5295005 -6.4790473 0.065041274
3.6190364 -6.3584719 0.042652227
3.7519495 -6.2880921 0.0084027443
3.4870679 -9.4688044 0.055745937
3.4865766 -9.0975361 0.05920089
3.4957547 -8.7631292 0.059783645
3.4900281 -8.4228926 0.064338163
3.4853168 -8.1021776 0.068450794
3.4881077 -7.8088098 0.070346437
3.4769595 -7.5098186 0.075958937
3.4515483 -7.2057319 0.085368469
3.46523 -6.9678073 0.083904438
3.4725201 -6.7316413 0.084105112
3.5046067 -6.535593 0.077424295
3.5698302 -6.3856263 0.061615825
3.6769927 -6.2871876 0.034315534
3.9277639 -6.347209 -0.032176975
3.4823546 -9.6130123 0.062436465
3.4768877 -9.2235804 0.067274161
3.4852366 -8.8799419 0.068075582
3.4784374 -8.5305023 0.072918355
3.4721873 -8.2007608 0.077446267
3.4674277 -7.8903899 0.081412874
3.4707088 -7.6071458 0.083026804
3.4775932 -7.3423057 0.083533078
3.4535992 -7.0479574 0.092426986
3.4574857 -6.8036261 0.093546242
3.4732304 -6.5844626 0.091321699
3.5272253 -6.4199409 0.07855083
3.6350234 -6.322722 0.051024005
3.7673283 -6.2529826 0.01680248
3.9589071 -6.2454758 -0.033570934
3.4860148 -9.3412256 0.076456867
3.5084267 -9.0140686 0.073307112
3.5009108 -8.6551876 0.078320727
3.4776552 -8.2910595 0.087531865
3.4816504 -7.9884348 0.08903531
3.4881737 -7.7046299 0.089715488
3.4810524 -7.4150267 0.094042875
3.4716225 -7.1360803 0.098891973
3.4842036 -6.8991237 0.097579546
3.4782243 -6.6484332 0.10127944
3.5214102 -6.4689069 0.091410033
3.6109424 -6.3501058 0.068798311
3.7304606 -6.2671185 0.037973713
4.000617 -6.3494892 -0.033993024
3.4866042 -9.4763288 0.083551727
3.4788876 -9.0882969 0.088822059
3.4900558 -8.7546186 0.088654302
3.4811864 -8.4065695 0.093899272
3.4835663 -8.094902 0.095870279
3.4770522 -7.7858009 0.10016954
3.4842067 -7.5119877 0.10056598
3.4607177 -7.2082815 0.10930426
3.4698398 -6.9632115 0.10894295
3.4662759 -6.7122645 0.11198191
3.5112495 -6.5329194 0.10160577
3.5831873 -6.3919616 0.083789051
3.6968548 -6.3027306 0.054521393
3.835273 -6.240757 0.018489862
3.4792683 -9.6206551 0.089703381
3.4765172 -9.2316084 0.0936362
3.482187 -8.8799448 0.095033735
3.4673591 -8.5140619 0.10196895
3.462882 -8.1850185 0.10586587
3.470551 -7.8919287 0.10625454
3.4643891 -7.5929623 0.11034852
3.4781823 -7.3370852 0.10881432
3.4732993 -7.067152 0.11233255
3.4549649 -6.7918353 0.1194519
3.4837337 -6.5892081 0.11351966
3.5383468 -6.4258819 0.10043309
3.6398091 -6.322865 0.074465185
3.7717528 -6.2552333 0.040147636
3.9426157 -6.2285337 -0.0047968985
3.5014124 -9.3755236 0.099367179
3.5019422 -9.0057497 0.10224336
3.4916077 -8.6389217 0.10797166
3.4757013 -8.2837467 0.11507905
3.4761014 -7.9735131 0.11750718
3.4731081 -7.6741033 0.12074511
3.4728413 -7.3935766 0.12310869
3.4819512 -7.1395459 0.12277465
3.5017445 -6.9112754 0.11940707
3.4853225 -6.6454554 0.12592413
3.5291858 -6.4671321 0.11578029
3.6188481 -6.3500075 0.093019582
3.7638001 -6.2988973 0.05509261
3.9020894 -6.2371292 0.019012487
3.4808457 -9.4937973 0.11014433
3.4713669 -9.0973959 0.11586682
3.4749985 -8.7471561 0.11774703
3.4684052 -8.3996649 0.1223138
3.4622087 -8.0719347 0.12661657
3.4627557 -7.7719274 0.12891105
3.4658468 -7.4908061 0.13037947
3.472399 -7.2281766 0.13078441
3.4658549 -6.9596992 0.13470341
3.4637382 -6.7094688 0.13730368
3.4973261 -6.5158181 0.12999423
3.5942848 -6.4071856 0.10522398
3.7018228 -6.3121223 0.077542067
3.8400786 -6.2522392 0.041445091
4.0042934 -6.2184768 -0.0017359722
3.4775181 -9.628849 0.11991438
3.4681308 -9.2228136 0.12557994
3.4711421 -8.8632154 0.12759812
3.4636052 -8.5064259 0.13239005
3.4611809 -8.1779919 0.13560525
3.4545884 -7.8606591 0.13983925
3.4607475 -7.5790763 0.14041574
3.4758077 -7.3241439 0.13842653
3.4838331 -7.0710406 0.13828617
3.4731328 -6.8041005 0.14321686
3.4790537 -6.5710335 0.14347623
3.5462828 -6.4246597 0.12681901
3.6791465 -6.3614182 0.092122927
3.7986302 -6.2803764 0.061108693
3.9365706 -6.2190528 0.025052553
3.5093584 -9.409749 0.13017431
3.4889383 -8.9968853 0.13859864
3.4710898 -8.6134462 0.14612688
3.4725804 -8.2843552 0.14813638
3.4592738 -7.9495502 0.15410878
3.4632399 -7.6592717 0.15518281
3.4645021 -7.3795342 0.15689532
3.4862676 -7.14258 0.15286492
3.4899652 -6.8911963 0.15372716
3.4748535 -6.6261687 0.15967402
3.5313714 -6.4647985 0.14588414
3.6398561 -6.3723211 0.11782061
3.7721152 -6.3080673 0.083252192
3.9231615 -6.2632427 0.043561473
4.0743046 -6.2148776 0.0038698982
4.2791467 -6.2204413 -0.050446216
3.4879911 -9.5176287 0.14715019
3.4626191 -9.0865841 0.15677862
3.4683611 -8.7369938 0.15761207
3.4588215 -8.381547 0.16253652
3.4595914 -8.0629244 0.16448051
3.445837 -7.7385831 0.17031305
3.4609666 -7.4749422 0.16808264
3.4743457 -7.2213211 0.16624711
3.4634912 -6.9454579 0.17098759
3.4625144 -6.6960478 0.17293139
3.5027456 -6.5114179 0.16351391
3.5874147 -6.3891115 0.1418989
3.7259281 -6.3341355 0.10555627
3.8705306 -6.2835822 0.067569308
4.0150161 -6.2297344 0.029635413
4.2058468 -6.2233086 -0.020903999
3.47276 -9.642642 0.16128048
3.457155 -9.2193661 0.1680772
3.4529529 -8.8430042 0.17156088
3.4425669 -8.4782858 0.17661075
3.4521065 -8.1676073 0.17604046
3.4421923 -7.8424883 0.18071966
3.4444375 -7.5534563 0.18195
3.4827497 -7.3323221 0.17319192
3.4697475 -7.0474653 0.17844027
3.4544926 -6.7733693 0.18421973
3.485018 -6.5729442 0.17739782
3.5346081 -6.4045959 0.16532081
3.6731234 -6.3513556 0.12894228
3.7923646 -6.2724242 0.097835094
3.9815729 -6.2728314 0.047678459
4.1131196 -6.2025032 0.013252181
3.4802604 -9.395978 0.17099728
3.4576652 -8.9748068 0.17952392
3.4468961 -8.6005096 0.18463273
3.4401591 -8.2550182 0.18849924
3.4388502 -7.9377818 0.19075613
3.4336965 -7.6315289 0.1939694
3.4415972 -7.3609257 0.193505
3.453099 -7.1087098 0.19197552
3.463351 -6.8664165 0.19071795
3.4552042 -6.6101246 0.19442637
3.5120354 -6.4501648 0.18031612
3.6140957 -6.3519025 0.15383504
3.7519698 -6.2975492 0.11758821
3.9535077 -6.3150043 0.064017437
4.0854602 -6.245997 0.029429475
4.249949 -6.2104011 -0.013993091
3.4999564 -9.5382013 0.17742153
3.4639175 -9.0809383 0.18969509
3.4670362 -8.7232676 0.19098125
3.4546456 -8.3597851 0.19642241
3.4519613 -8.0334282 0.19906665
3.4397912 -7.7098055 0.20421617
3.4451888 -7.4306073 0.20443623
3.4924734 -7.2273493 0.1930822
3.4833677 -6.9518933 0.19713467
3.4606862 -6.6710515 0.20482506
3.5072792 -6.495647 0.19349165
3.5858879 -6.3672585 0.17337449
3.7299025 -6.3222718 0.13539138
3.8675737 -6.2664671 0.099154525
4.0630412 -6.2744799 0.04718845
4.2011209 -6.211513 0.010885583
4.4124851 -6.2245669 -0.045334958
3.4811466 -9.6626272 0.18649492
3.4411526 -9.1867323 0.1999291
3.4436007 -8.8198032 0.2014375
3.4400754 -8.4643059 0.20446821
3.4361448 -8.1287775 0.20749101
3.4327655 -7.8129325 0.21025039
3.4415288 -7.5331225 0.20957156
3.4915161 -7.3296118 0.19748402
3.4689167 -7.0289588 0.20526645
3.4549088 -6.755549 0.21060438
3.4801731 -6.5483203 0.20511334
3.5359678 -6.3892322 0.19122016
3.6553991 -6.3150344 0.15990767
3.7863545 -6.253674 0.12545581
4.0190597 -6.3093247 0.063260369
4.1574044 -6.2478518 0.026843486
4.3351636 -6.2268095 -0.020292588
3.5048702 -9.4072285 0.19517508
3.4713683 -8.9599476 0.20667976
3.4628599 -8.5861626 0.21111163
3.4531732 -8.2326632 0.21573873
3.4586105 -7.9246345 0.21608034
3.449898 -7.6106148 0.22022206
3.4590447 -7.3408618 0.21935527
3.4827065 -7.1059389 0.21442573
3.4772525 -6.8400841 0.21742178
3.4817455 -6.6006274 0.21761881
3.5271561 -6.426198 0.20655343
3.6227968 -6.3221173 0.18171553
3.7722089 -6.2854939 0.14217825
3.9851725 -6.3208632 0.085312806
4.1621242 -6.3058214 0.038322557
4.2743697 -6.2131586 0.008996726
4.4991045 -6.2406564 -0.050956279
3.4824135 -9.5221863 0.2072099
3.4631751 -9.0915318 0.21475586
3.4498985 -8.6994209 0.22050153
3.4493461 -8.3537636 0.2225991
3.4335871 -8.0023451 0.22877881
3.4385393 -7.7047529 0.22914436
3.4349349 -7.4095006 0.23177645
3.499289 -7.232203 0.21565272
3.4751508 -6.9327388 0.22377616
3.4653528 -6.6685891 0.22788355
3.500963 -6.4783931 0.21948688
3.579654 -6.3516049 0.19926473
3.7107487 -6.2934256 0.1647054
3.8476295 -6.2400537 0.12857851
4.0800967 -6.2960048 0.066388063
4.2312689 -6.2495565 0.026415931
4.4090648 -6.2285705 -0.020788012
3.481442 -9.6636333 0.21635126
3.4403455 -9.1789408 0.22994663
3.4451144 -8.812542 0.23068307
3.4390042 -8.4488726 0.23430333
3.432029 -8.1053581 0.23804417
3.4455826 -7.8156557 0.23602554
3.4298387 -7.4944596 0.24198225
3.5071385 -7.3338547 0.22228533
3.4754193 -7.0170975 0.23247209
3.4515142 -6.7280793 0.24042709
3.4889691 -6.5380034 0.23150349
3.5452132 -6.3801951 0.21739945
3.6582823 -6.3001094 0.18773846
3.8011098 -6.256196 0.14995614
4.026197 -6.3071775 0.089748681
4.2093472 -6.2998476 0.041028101
4.3214884 -6.2073359 0.011682608
4.5393796 -6.2278161 -0.046443287
3.5064321 -9.4078426 0.22637185
3.4623239 -8.9342995 0.24069007
3.4559221 -8.5611181 0.24443518
3.4481783 -8.2082386 0.24842682
3.4451041 -7.8839278 0.2510241
3.453263 -7.5960641 0.25043467
3.4584842 -7.3187323 0.25057027
3.4776459 -7.0765648 0.24680769
3.4788978 -6.8197184 0.24789056
3.4844134 -6.5811248 0.24773833
3.5302997 -6.4079599 0.23649274
3.6378191 -6.3212991 0.20837961
3.7683952 -6.2635856 0.17397468
3.9861827 -6.3095689 0.11580341
4.1750593 -6.3120923 0.065559983
4.326489 -6.2654338 0.025546299
4.4912572 -6.2297373 -0.01807523
3.4871216 -9.5219002 0.23872463
3.4617617 -9.0738144 0.24789496
3.4461095 -8.6734219 0.25422624
3.4376845 -8.3111248 0.25843203
3.4333787 -7.9776011 0.26138777
3.4345922 -7.6723032 0.26272359
3.4322014 -7.3778653 0.26495963
3.5129406 -7.2269135 0.24431507
3.4739172 -6.9032421 0.2564531
3.4651077 -6.6399159 0.26022887
3.5126941 -6.4669681 0.24852058
3.5914917 -6.3416476 0.22825341
3.7221203 -6.2854452 0.19383116
3.8523071 -6.2264562 0.15954083
4.0705633 -6.2703667 0.1012729
4.2853603 -6.3008237 0.043996744
4.4106727 -6.2229552 0.011105323
4.6623249 -6.2792134 -0.056113191
3.4806333 -9.3529844 0.26431707
3.4570057 -8.9152584 0.27289343
3.438741 -8.5163612 0.27984342
3.4325435 -8.1642723 0.28334346
3.4407039 -7.8579736 0.28278822
3.4399552 -7.5539551 0.28458983
3.4461176 -7.2776108 0.28441063
3.4767158 -7.0531788 0.2774663
3.4624574 -6.7725458 0.28273782
3.4798307 -6.5513144 0.27929303
3.5375721 -6.3954892 0.26477724
3.6508236 -6.3184376 0.23509333
3.7871666 -6.270349 0.19912151
3.9481237 -6.2499099 0.15646145
4.1604829 -6.2859597 0.099843547
4.3820281 -6.3236446 0.040774599
4.4946036 -6.230803 0.011353132
3.4878716 -9.5108576 0.27075389
3.4743462 -9.0807705 0.27655777
3.4431596 -8.6454058 0.28708485
3.4319241 -8.2750111 0.29197726
3.4291711 -7.9422393 0.29442284
3.4317057 -7.6377707 0.2953186
3.4357388 -7.3525872 0.29571873
3.5272896 -7.2198262 0.2720767
3.4738352 -6.8716545 0.28808045
3.4660506 -6.6091514 0.29150638
3.5196357 -6.445611 0.27811372
3.61605 -6.3456774 0.25301081
3.7285049 -6.2677288 0.22353207
3.8704257 -6.2262549 0.18603455
4.043715 -6.2195959 0.14001888
4.2949438 -6.29848 0.072847374
4.4721828 -6.2816029 0.025833983
4.6371918 -6.2457085 -0.017832579
3.4428549 -9.1663437 0.29273325
3.4341619 -8.7656345 0.29700479
3.427372 -8.3943949 0.30062667
3.4239202 -8.0521698 0.30322087
3.4252164 -7.7384472 0.30441484
3.4224381 -7.4356985 0.30663857
3.5262907 -7.3200865 0.27960187
3.4605811 -6.9458776 0.29890472
3.4555557 -6.6829219 0.30153239
3.4883876 -6.4870877 0.29376838
3.568217 -6.3640652 0.273155
3.6809003 -6.2874613 0.2435807
3.8166764 -6.2398276 0.20772538
3.9956622 -6.2428575 0.16013473
4.1951952 -6.2639556 0.10699227
4.4034081 -6.2871523 0.051531781
4.5482101 -6.2315092 0.013313335
3.4404294 -9.2963047 0.3026973
3.4366736 -8.8947334 0.30560306
3.4161863 -8.4874592 0.31298602
3.4165597 -8.1447039 0.31451845
3.4165404 -7.8218594 0.3160626
3.4221239 -7.5271778 0.31598508
3.429508 -7.2516365 0.31533942
3.4768453 -7.0532775 0.30370742
3.4424624 -6.7400265 0.31434557
3.471674 -6.5361481 0.30755839
3.5355291 -6.389626 0.2912924
3.64276 -6.3063154 0.26319301
3.772579 -6.2524147 0.22895005
3.9203894 -6.218905 0.18982592
4.0873084 -6.2047801 0.14552975
4.3574662 -6.3064189 0.073236234
4.5153046 -6.267313 0.031471148
4.7199235 -6.2752423 -0.022953436
3.5143199 -9.5708961 0.29714641
3.4567831 -9.0424728 0.31471395
3.4370744 -8.6252155 0.32174799
3.4186914 -8.2378016 0.32830325
3.4271436 -7.9231114 0.32741275
3.4213991 -7.6021399 0.33032444
3.4215193 -7.3093328 0.33155683
3.5652673 -7.2622995 0.29353938
3.4555964 -6.8223686 0.32460284
3.4651544 -6.5854788 0.32308885
3.5190697 -6.4232554 0.30945623
3.6268806 -6.3410521 0.28114846
3.7451544 -6.2726951 0.24999787
3.8746502 -6.2175517 0.21580365
4.0223112 -6.1826329 0.17669098
4.2714491 -6.2651367 0.11008349
4.5119581 -6.3256011 0.045866031
4.6377106 -6.2474523 0.012763271
3.4444835 -9.1448059 0.3296037
3.4337397 -8.7356987 0.3340461
3.4243631 -8.3562679 0.33801264
3.4225271 -8.0147743 0.33982632
3.420316 -7.6932349 0.34166294
3.418694 -7.3913641 0.34326738
3.542799 -7.3114181 0.31055787
3.4635203 -6.9121318 0.33320609
3.4540412 -6.6417575 0.33678126
3.5039601 -6.4716821 0.32416368
3.5896177 -6.35818 0.30181652
3.7021401 -6.2832661 0.27216971
3.8435156 -6.2454009 0.2347026
3.9911504 -6.2120519 0.19555064
4.1641498 -6.2057056 0.14954333
4.3959107 -6.2624621 0.087654866
4.59203 -6.2684016 0.035447471
3.4500275 -9.255702 0.34212881
3.4526999 -8.8637209 0.34282282
3.4299662 -8.4480686 0.35036826
3.4319241 -8.1060705 0.35107702
3.4381459 -7.7926693 0.35054749
3.4401164 -7.4901719 0.35111409
3.4536521 -7.2240105 0.34846935
3.5697277 -7.1359577 0.31788018
3.4633079 -6.7057514 0.34777114
3.5095785 -6.5276394 0.33609569
3.5681789 -6.3742213 0.32104847
3.6751513 -6.2926488 0.2928592
3.8163381 -6.2564855 0.25539672
3.9516213 -6.2093472 0.21954384
4.1053295 -6.1822314 0.17871214
4.3481255 -6.2572007 0.11378516
4.582036 -6.3103633 0.051301703
4.7469764 -6.2763972 0.0074998452
3.515353 -9.5472746 0.32986185
3.4568231 -9.0099163 0.34730616
3.4304526 -8.5753698 0.35582182
3.4275405 -8.2149973 0.35782796
3.4233065 -7.8748531 0.36011755
3.4284968 -7.5719485 0.35976636
3.4248159 -7.2713356 0.36177409
3.5986323 -7.277091 0.31538364
3.4496419 -6.7696834 0.35686395
3.4868629 -6.5752072 0.34760025
3.5412381 -6.4140759 0.33364415
3.6431041 -6.3254275 0.30677044
3.7667885 -6.2668147 0.2739715
3.9078646 -6.2291646 0.23646085
4.0490785 -6.1883178 0.19892503
4.246695 -6.2127566 0.14611538
4.5296445 -6.3293757 0.07022199
4.6682425 -6.2678442 0.033451851
3.4274282 -9.2315702 0.36450329
3.4280124 -8.8312054 0.36573997
3.4164307 -8.4337416 0.37022269
3.4111502 -8.0746784 0.3728869
3.4140496 -7.7533092 0.37323192
3.4172077 -7.4516239 0.37343934
3.441699 -7.2034631 0.36775315
3.5367408 -7.0833583 0.34274381
3.4377019 -6.6615891 0.37072015
3.5003769 -6.5096192 0.35448202
3.5704265 -6.3737388 0.33621576
3.6830542 -6.3016958 0.30633205
3.8063183 -6.2434115 0.27355531
3.9469693 -6.2060833 0.23605025
4.106154 -6.188745 0.19351768
4.291213 -6.1979694 0.14396487
4.5483055 -6.2848325 0.074863955
4.7382207 -6.2830553 0.024051333
3.5209658 -9.5419893 0.3504141
3.4536481 -8.9775095 0.37042522
3.4254377 -8.5344458 0.37954032
3.428787 -8.1836128 0.37988326
3.4262869 -7.8441081 0.38175184
3.4377193 -7.5506148 0.37973231
3.4207335 -7.2248616 0.38543451
3.572623 -7.1991582 0.34486318
3.4522514 -6.7336936 0.3787418
3.4952581 -6.5487204 0.36788803
3.5664692 -6.4134722 0.34930682
3.6570718 -6.3100672 0.3254205
3.7860878 -6.2613096 0.29105625
3.9207296 -6.2176952 0.25516731
4.0613413 -6.1788926 0.2176618
4.2454133 -6.1905704 0.16834131
4.4755797 -6.250339 0.10650743
4.6834555 -6.2738767 0.050768841
3.4474666 -9.1147509 0.37840965
3.424649 -8.6705999 0.38607639
3.4192741 -8.2923126 0.38884392
3.4162292 -7.9433475 0.39088681
3.4216776 -7.6319566 0.39052552
3.4179301 -7.322866 0.39261889
3.5056498 -7.1869817 0.36961812
3.4452362 -6.8138433 0.38710788
3.4692371 -6.5954061 0.38145691
3.5417135 -6.460711 0.36253396
3.6165326 -6.333581 0.34295753
3.7399375 -6.2781534 0.31012207
3.8686588 -6.2281299 0.27584288
4.0090475 -6.1910281 0.23839568
4.1740913 -6.1816449 0.19425012
4.3527584 -6.1833773 0.14641619
4.6351237 -6.3004856 0.070414633
4.8317924 -6.3058667 0.017749021
3.4462287 -9.1980553 0.3939749
3.4490213 -8.7983093 0.39462182
3.4483659 -8.4192057 0.39611861
3.4452629 -8.0605879 0.39820182
3.4500268 -7.7397504 0.39805013
3.4452631 -7.4212866 0.40043917
3.4459336 -7.1311769 0.40127701
3.5095165 -6.9622002 0.38485417
3.4795468 -6.6504354 0.39396942
3.5426772 -6.4996233 0.37760642
3.6240914 -6.3813758 0.35623512
3.7254574 -6.2945814 0.32941443
3.8541896 -6.2460465 0.29513648
3.994482 -6.2105451 0.25771773
4.141016 -6.1796508 0.21861295
4.3188782 -6.1836824 0.17099959
4.536253 -6.2284827 0.11266831
4.7695255 -6.2821484 0.050049406
3.4540453 -9.1003866 0.40944615
3.4300318 -8.6474915 0.41737354
3.4269438 -8.2697096 0.41945675
3.4259374 -7.9212918 0.42088771
3.4331012 -7.6105433 0.42000806
3.4310575 -7.302031 0.42158517
3.4595163 -7.0646458 0.41476929
3.4455457 -6.7690816 0.41949454
3.4962528 -6.5937943 0.40652069
3.5638359 -6.4519796 0.38892308
3.6610241 -6.358974 0.36324456
3.7676685 -6.2806225 0.33498645
3.8903577 -6.2243567 0.30236408
4.0480542 -6.2129159 0.26022914
4.1946015 -6.1820803 0.22113949
4.3600931 -6.1708488 0.1769174
4.6340685 -6.2839975 0.10326107
4.8617711 -6.3295145 0.042206854
3.4466357 -9.1941776 0.42628258
3.4441245 -8.7767754 0.42829826
3.4459431 -8.3982201 0.42903197
3.4318302 -8.0134974 0.43404612
3.4472671 -7.7111387 0.43089998
3.4442999 -7.3933182 0.43272313
3.4513919 -7.1125541 0.43174088
3.4603152 -6.8509297 0.43020725
3.4978349 -6.6503391 0.42083538
3.5669918 -6.5089903 0.40281618
3.6544223 -6.4002151 0.37980747
3.7506268 -6.3065906 0.35440615
3.8735735 -6.2517009 0.32173035
4.0135565 -6.2181392 0.2844319
4.1537557 -6.1814094 0.24708602
4.3308306 -6.1878839 0.19974244
4.5157962 -6.1974349 0.15027861
4.8046169 -6.3222361 0.072680444
3.4645712 -9.4058638 0.42889613
3.4483349 -8.9417095 0.43465668
3.4261339 -8.4991398 0.44194767
3.4338377 -8.1494408 0.44096282
3.4400144 -7.8198328 0.44032526
3.4363308 -7.4925704 0.4423174
3.427664 -7.1765866 0.44560707
3.4590683 -6.9491324 0.43791655
3.473855 -6.7057958 0.43471608
3.5287924 -6.5397148 0.42054901
3.622366 -6.4401636 0.39584935
3.7193458 -6.3474426 0.37021899
3.8370788 -6.2856178 0.33894759
3.9482388 -6.2134614 0.30946451
4.1115928 -6.2102804 0.26581797
4.2640815 -6.1874819 0.22513422
4.4295831 -6.1764121 0.18093845
4.6845326 -6.2671237 0.11251859
3.4447672 -9.0979815 0.44286874
3.4244101 -8.6452236 0.44966143
3.4242651 -8.267808 0.45083353
3.4170637 -7.9020205 0.45385671
3.4262428 -7.5919318 0.45234212
3.4167488 -7.266562 0.45586213
3.4316275 -7.0043683 0.45268428
3.4489307 -6.7609949 0.44880408
3.5056965 -6.5952497 0.43415129
3.5793052 -6.4629765 0.41489887
3.6823444 -6.379631 0.38763818
3.7893999 -6.3026986 0.3592844
3.9065809 -6.2399578 0.32818508
4.0522122 -6.2146659 0.28937003
4.204319 -6.1938477 0.24881232
4.3632188 -6.1771469 0.20642689
4.6229167 -6.2785597 0.13675533
4.8747349 -6.3573976 0.069257021
3.4456575 -9.199338 0.45799932
3.4464655 -8.7822046 0.45894513
3.4428468 -8.3859711 0.46101767
3.4401565 -8.0194292 0.46276179
3.448842 -7.699863 0.46133685
3.4247348 -7.3387012 0.46879068
3.4424431 -7.0763087 0.46479777
3.4574611 -6.8241653 0.46149611
3.5058856 -6.641686 0.44907457
3.5859683 -6.5184107 0.42802808
3.7060688 -6.4607692 0.39610544
3.7813904 -6.3350782 0.37633893
3.893276 -6.2654228 0.34664318
4.015676 -6.2096791 0.31410074
4.1789336 -6.2067246 0.27049163
4.3313451 -6.1841478 0.22983569
4.509119 -6.1886768 0.18232608
4.8083339 -6.3324575 0.10197296
3.4488089 -9.3546925 0.4662348
3.4472606 -8.918437 0.46780458
3.4281132 -8.4761705 0.47409618
3.4380186 -8.1270857 0.47237694
3.4417984 -7.7892108 0.47226882
3.4445472 -7.471375 0.47238171
3.442518 -7.1646166 0.47374338
3.4459693 -6.8861976 0.47356734
3.4863591 -6.68681 0.46330896
3.5779426 -6.581089 0.43911794
3.6618662 -6.4657607 0.41699976
3.7866299 -6.4155126 0.38379103
3.8663397 -6.297421 0.36280674
3.9776399 -6.2267871 0.33325267
4.1288042 -6.2097387 0.29289851
4.2867069 -6.1969538 0.25073177
4.4394422 -6.1725984 0.20997624
4.6926608 -6.2666335 0.1420442
3.438308 -9.500556 0.47501454
3.4500959 -9.081768 0.47296217
3.4247084 -8.6110954 0.48098463
3.4182575 -8.2162743 0.48374754
3.4257994 -7.877975 0.48262408
3.4366286 -7.5685415 0.48054421
3.4382339 -7.2611957 0.48092812
3.4306829 -6.9561796 0.48375297
3.4683928 -6.7482228 0.47422424
3.5409484 -6.6090684 0.45519629
3.615237 -6.4777851 0.43568584
3.7936585 -6.5120711 0.38789809
3.8257639 -6.3201032 0.37982482
3.9317245 -6.2425723 0.35170585
4.0710435 -6.2111917 0.31454501
4.2283592 -6.2003736 0.2725178
4.3866644 -6.1857443 0.23023608
4.6199994 -6.259469 0.16765799
3.4519982 -9.1722622 0.48491681
3.4553473 -8.7556438 0.48517483
3.4458513 -8.3418179 0.48886287
3.4535136 -7.993875 0.48777926
3.4550643 -7.6571822 0.48830143
3.4418867 -7.3141508 0.49278072
3.4561062 -7.0437975 0.4897306
3.4769907 -6.8011308 0.4848195
3.5359819 -6.6368241 0.46949589
3.6576216 -6.5823975 0.43710428
3.7680151 -6.5088744 0.40777466
3.8282313 -6.359004 0.39208293
3.9292603 -6.2742763 0.36528987
4.0515575 -6.2200813 0.33272114
4.2025595 -6.2031589 0.29236788
4.3483453 -6.1748023 0.25344199
4.5251055 -6.1817522 0.20612848
4.8033714 -6.3062272 0.13132626
3.4439297 -9.4720335 0.49698099
3.4468105 -9.0262833 0.49760118
3.4318817 -8.5743313 0.50301147
3.4276173 -8.180047 0.50538743
3.441133 -7.8514013 0.50279766
3.444742 -7.5248489 0.50285655
3.447655 -7.2182574 0.50304002
3.4461315 -6.9226599 0.50437891
3.4893227 -6.7243767 0.49343896
3.5921185 -6.6377916 0.4661907
3.6570807 -6.4903631 0.44926265
3.8681018 -6.3351808 0.39325768
3.9631529 -6.2425804 0.36810088
4.1191716 -6.2371621 0.32634684
4.2587581 -6.2041111 0.28907982
4.4045444 -6.175755 0.25013682
4.6301837 -6.244627 0.18950516
3.4545014 -9.1428223 0.5050751
3.4525599 -8.7084312 0.50708437
3.4533195 -8.3133287 0.50823814
3.4587061 -7.9569855 0.50802082
3.4532485 -7.6030788 0.51070207
3.455013 -7.2872748 0.51131982
3.4612348 -7.0001082 0.51064837
3.5068491 -6.8017921 0.49911872
3.5716231 -6.6469622 0.48231044
3.6729848 -6.5598869 0.45546734
3.8757505 -6.3892121 0.40176007
3.9388547 -6.2479939 0.38535246
4.1113105 -6.2687001 0.33909437
4.2395015 -6.2209835 0.30493104
4.3969674 -6.2100534 0.26279759
4.5675092 -6.2108927 0.2171206
4.8197575 -6.3073196 0.14922395
3.4568014 -9.3151054 0.51105571
3.4417796 -8.8337688 0.51672965
3.4434271 -8.4288692 0.5176807
3.4367049 -8.035758 0.52083397
3.4435084 -7.6993623 0.52017176
3.4445496 -7.3741474 0.52101594
3.4631994 -7.1041656 0.51695681
3.4786174 -6.8445439 0.51372832
3.5253508 -6.6556797 0.50187224
3.6620517 -6.629621 0.46537021
3.7732437 -6.5583687 0.43585229
3.9049816 -6.2777057 0.40156227
4.0882354 -6.3163962 0.3523711
4.1940899 -6.2374988 0.32431045
4.3395138 -6.2123995 0.28546748
4.4973888 -6.1996226 0.24324891
4.7234254 -6.2681508 0.18250008
3.4455261 -9.4598398 0.52169263
3.4328074 -8.9683599 0.52677447
3.4318953 -8.5444307 0.52847087
3.4340115 -8.1596994 0.52922606
3.4368849 -7.8046207 0.52967989
3.437624 -7.4698811 0.53063673
3.446208 -7.172977 0.52936906
3.4552097 -6.8956447 0.52792388
3.4943388 -6.6896763 0.51817727
3.6214614 -6.6476803 0.48433191
3.717802 -6.5521154 0.45890379
3.8667593 -6.2985396 0.41995946
4.0494857 -6.3390942 0.37095666
4.2009449 -6.3262568 0.33049911
4.2897024 -6.2217731 0.30713227
4.4413104 -6.2029495 0.26665497
4.6480484 -6.2506828 0.21120122
3.4422247 -9.1210794 0.53523821
3.4315653 -8.6595278 0.53962415
3.4342525 -8.2650766 0.54022247
3.4412513 -7.9094458 0.53953934
3.4373963 -7.5561795 0.54175293
3.4492934 -7.2588811 0.53956848
3.4568675 -6.9723425 0.53850651
3.4936659 -6.7575898 0.52939421
3.5875952 -6.6559448 0.50463295
3.6942441 -6.5786047 0.47639021
3.8501823 -6.3349128 0.4355371
3.9944425 -6.3192768 0.39703473
4.2007046 -6.3901262 0.34166947
4.2735362 -6.2619514 0.32263947
4.401844 -6.2126665 0.28851426
4.5896316 -6.23914 0.23823576
4.8224559 -6.3148618 0.17575184
3.4549372 -9.2547054 0.55032676
3.4460907 -8.783123 0.55417943
3.4458249 -8.3697128 0.55556595
3.4529717 -8.0045013 0.55482674
3.457319 -7.6596894 0.55477142
3.4642067 -7.3440361 0.55394751
3.4705729 -7.048244 0.55320245
3.5052674 -6.8246455 0.54468209
3.5670974 -6.6627426 0.52873814
3.659173 -6.5608521 0.50454706
3.8625171 -6.3953032 0.45093101
3.9429603 -6.2809391 0.42987943
4.1859941 -6.4119849 0.36473233
4.2483521 -6.2684345 0.34859282
4.3823519 -6.2287178 0.31303734
4.5399952 -6.2176609 0.27109092
4.7591038 -6.2807279 0.21253364
3.448601 -9.4067955 0.56214875
3.4346733 -8.9065466 0.56738323
3.4317179 -8.4741039 0.56949806
3.4430883 -8.1083994 0.56760198
3.4432335 -7.7449698 0.5686838
3.4493418 -7.4199629 0.56806546
3.4588811 -7.1238403 0.56644851
3.4869957 -6.8825388 0.55972636
3.5269775 -6.6773376 0.54974258
3.6293302 -6.5937004 0.52280831
3.7801194 -6.5938497 0.48274422
3.8995035 -6.2912259 0.45197269
4.1192861 -6.3916712 0.39326453
4.226481 -6.3146548 0.36502603
4.3723745 -6.2921381 0.32633543
4.4895554 -6.2264795 0.29540771
4.6776977 -6.2526727 0.24533859
3.4610422 -9.0476847 0.57931405
3.4671767 -8.6236506 0.57892925
3.4601123 -8.2022724 0.58203655
3.4683032 -7.847424 0.58090699
3.4614255 -7.4858809 0.58379251
3.4826591 -7.2073884 0.57898563
3.5000985 -6.9393287 0.57515359
3.5421717 -6.734221 0.56460786
3.6504498 -6.6598949 0.53613007
3.7771027 -6.6180625 0.50268739
3.8934047 -6.3082657 0.47278211
4.1013694 -6.3941798 0.41740835
4.2362061 -6.3595395 0.38177559
4.3993897 -6.362504 0.33851731
4.4713478 -6.2334151 0.31982872
4.6469169 -6.2458663 0.27325958
4.8787537 -6.3239532 0.21158133
3.4573267 -9.3507795 0.5970971
3.4458194 -8.8510027 0.60155487
3.4485195 -8.4283581 0.60203451
3.4536521 -8.0450191 0.60176009
3.45099 -7.673245 0.60351765
3.4663281 -7.3671155 0.6003263
3.4767749 -7.0717764 0.5983997
3.5099068 -6.8402829 0.5902887
3.5642545 -6.6623549 0.57640976
3.6473136 -6.5452971 0.55475748
3.8166268 -6.5818343 0.50983566
3.8557954 -6.3933592 0.50000668
3.9840548 -6.3567338 0.46615955
4.1929231 -6.4420028 0.41062632
4.2403102 -6.2754102 0.39855888
4.4191003 -6.3036366 0.35114968
4.5421915 -6.2472677 0.31872597
4.7180471 -6.259439 0.27213743
3.4659238 -8.9920893 0.61040211
3.4666524 -8.5502071 0.61139667
3.4726789 -8.1570663 0.61085773
3.4665213 -7.7664237 0.61354142
3.4772005 -7.4418545 0.61159086
3.4951441 -7.1551957 0.60761744
3.5222347 -6.9057574 0.60112375
3.5740807 -6.7191873 0.58790749
3.6491075 -6.5851822 0.56841302
3.8036578 -6.5972323 0.52747154
3.8692391 -6.4519796 0.51050884
3.9414086 -6.3232965 0.4917568
4.1431656 -6.4027953 0.43813407
4.2342935 -6.3035412 0.41428274
4.4630466 -6.4068341 0.35344571
4.5247431 -6.2621489 0.33751002
4.6942677 -6.2682271 0.29261577
4.9013009 -6.3171144 0.2376738
3.4684556 -9.162158 0.6157217
3.4572129 -8.6729374 0.61999261
3.4605381 -8.260766 0.62020147
3.4666455 -7.8878169 0.61957103
3.4652934 -7.5263429 0.62088823
3.4822886 -7.2304053 0.61717165
3.5078096 -6.971911 0.61109883
3.5527434 -6.7678027 0.5997389
3.6244791 -6.6255517 0.58111465
3.7261362 -6.5434966 0.55440319
3.8409686 -6.4855523 0.52413863
3.8988709 -6.3320322 0.50920963
4.062799 -6.3548212 0.46572202
4.2501631 -6.406796 0.41594565
4.3797436 -6.3636527 0.3817322
4.4921522 -6.2934675 0.35214087
4.6266704 -6.2531538 0.31660914
4.8382359 -6.3125281 0.26040092
3.4535162 -9.2949858 0.62516069
3.4446423 -8.7956848 0.62884957
3.4493749 -8.3736639 0.62872887
3.4562366 -7.9909906 0.62794292
3.4552252 -7.6198421 0.62921393
3.4717021 -7.3145204 0.62567812
3.4917836 -7.0378842 0.6211096
3.5390947 -6.8338733 0.60913324
3.5943317 -6.6567435 0.59498513
3.6920073 -6.5668931 0.56935632
3.8023589 -6.5014348 0.54030269
3.8663509 -6.3571572 0.52374727
3.9989858 -6.3308191 0.48868179
4.1956105 -6.4018426 0.43639523
4.2703919 -6.2778039 0.4169254
4.5772414 -6.2611237 0.33567515
4.7643747 -6.2910104 0.28601119
3.4661462 -8.9369383 0.63674456
3.4654274 -8.4863644 0.63811147
3.4768186 -8.1031666 0.63609254
3.4724193 -7.7131042 0.63828182
3.4883935 -7.3983564 0.63487333
3.5074248 -7.112462 0.63057983
3.544039 -6.8817291 0.62148076
3.6235638 -6.7491264 0.60074586
3.6856654 -6.5895085 0.58470231
3.8107846 -6.5511279 0.55162966
3.8662989 -6.3900776 0.53733718
3.9787004 -6.3309579 0.50769305
4.1426497 -6.3536959 0.46416163
4.2708273 -6.314312 0.43027955
4.4706712 -6.37887 0.37711835
4.5607162 -6.2760382 0.35351536
4.7181582 -6.2679048 0.31178948
3.4805155 -9.1158667 0.64220929
3.4719858 -8.6270599 0.64570552
3.477412 -8.2154522 0.64530784
3.4738152 -7.8155775 0.64727473
3.4856598 -7.4821997 0.64497995
3.4997046 -7.1779766 0.64203042
3.5388319 -6.9472709 0.63224113
3.602282 -6.7795501 0.61584067
3.6702843 -6.6292906 0.59818918
3.7674294 -6.5396671 0.5726546
3.8528388 -6.431313 0.55027968
3.9507728 -6.3474965 0.52452177
4.0883603 -6.3296628 0.48807448
4.2477345 -6.342185 0.4457719
4.4523258 -6.4168801 0.39131549
4.5599861 -6.3393149 0.36295953
4.6892409 -6.2920332 0.32879856
4.8827143 -6.329402 0.27738336
3.465394 -9.257699 0.65275627
3.4525297 -8.7400723 0.65741557
3.4628081 -8.3279543 0.6556828
3.4451904 -7.8813939 0.66143447
3.4721613 -7.5752892 0.65502167
3.485755 -7.2616205 0.65217584
3.5192888 -7.0128341 0.64388621
3.5760016 -6.8275423 0.62929291
3.6455483 -6.6777396 0.61121154
3.7437196 -6.5888271 0.58538914
3.8255038 -6.4724073 0.56398088
3.9143536 -6.3722181 0.54065865
4.0366244 -6.3302469 0.50832891
4.1953015 -6.3445802 0.46620539
4.3502235 -6.346787 0.42510635
4.5671682 -6.4355378 0.36734232
4.6411495 -6.3076911 0.34803143
4.8106909 -6.3151183 0.30303979
3.4756837 -8.8808689 0.66728485
3.4807332 -8.4401712 0.66692901
3.4425185 -7.9281588 0.67821068
3.4723547 -7.6221647 0.67098153
3.5088043 -7.3540249 0.66191387
3.5289257 -7.0688882 0.6572172
3.5833499 -6.874929 0.64321649
3.658886 -6.7344718 0.62349606
3.7398806 -6.6110053 0.60228997
3.8319609 -6.5128274 0.57808584
3.9217901 -6.413353 0.55448216
4.0244341 -6.3382382 0.52742368
4.1618676 -6.320488 0.49100742
4.3264012 -6.3414412 0.44731289
4.5200796 -6.3996086 0.39580303
4.5994725 -6.2814775 0.37500858
4.7793169 -6.3073411 0.32724109
3.4846418 -9.0777836 0.67229527
3.4687095 -8.5613127 0.67757809
3.4723644 -8.1411219 0.67747074
3.4215376 -7.6221981 0.6920234
3.4950027 -7.4368854 0.67292088
3.5184667 -7.151505 0.66728771
3.5670433 -6.9395947 0.65484607
3.6356692 -6.7816701 0.63697177
3.7044945 -6.632257 0.61903054
3.8066308 -6.552495 0.59210581
3.8878608 -6.4364014 0.57080376
4.005919 -6.3880401 0.53959215
4.1132245 -6.3203969 0.51127177
4.2665787 -6.3263922 0.47058049
4.4805269 -6.4200654 0.41362888
4.5717297 -6.3192506 0.38964847
4.7287607 -6.3143148 0.34800297
4.9216957 -6.3536072 0.29673654
3.4757359 -9.1812258 0.68559998
3.4787779 -8.7016478 0.68572891
3.4842412 -8.2714462 0.68511796
3.3768687 -7.5941958 0.71494657
3.4930422 -7.5109072 0.68427128
3.5195937 -7.2253966 0.67778456
3.5623479 -6.995491 0.66688901
3.6326752 -6.8379631 0.64853144
3.7075679 -6.6978068 0.6289286
3.7971122 -6.5922523 0.60536784
3.8793848 -6.4768043 0.58375758
3.9832561 -6.4035401 0.55633169
4.0857267 -6.328506 0.52927941
4.2281737 -6.3192692 0.49148545
4.4245982 -6.3902936 0.43920234
4.5972929 -6.4148412 0.3933109
4.7216816 -6.3617067 0.36039609
4.8627601 -6.330184 0.3230069
3.492542 -8.8614712 0.69357324
3.5039182 -8.4304848 0.69137424
3.3469474 -7.6029258 0.73460966
3.4673131 -7.5300446 0.70280927
3.5235488 -7.3088555 0.68831128
3.565155 -7.0698466 0.67773259
3.6291924 -6.8945961 0.66107851
3.7057676 -6.7548957 0.64102966
3.7876635 -6.6322412 0.61953616
3.8757727 -6.5262198 0.59636277
3.9709718 -6.4364004 0.57127619
4.0790815 -6.3708792 0.54271638
4.1911697 -6.311913 0.51308715
4.3863149 -6.3851824 0.46115854
4.5419741 -6.3868876 0.41984656
4.7320418 -6.4341035 0.36931393
4.8400035 -6.3548532 0.34081784
3.4874959 -9.0120153 0.70377117
3.4810197 -8.51476 0.70633209
3.3320012 -7.6854157 0.74729794
3.4097505 -7.5022945 0.72696894
3.5205488 -7.4105315 0.69771045
3.5494273 -7.134912 0.69051343
3.611382 -6.950923 0.67438072
3.6809728 -6.793788 0.65617496
3.7684567 -6.6806908 0.6331436
3.8485391 -6.5577216 0.61209494
3.9444525 -6.4687653 0.58678412
4.0481853 -6.3956127 0.55937147
4.1555557 -6.3292284 0.53098118
4.3031731 -6.3284669 0.49179089
4.5103598 -6.4161401 0.43663418
4.6070976 -6.324903 0.41110697
4.7747202 -6.3381176 0.36658034
3.4768307 -9.1719875 0.71395779
3.4735999 -8.6644754 0.71558172
3.4576633 -8.1693621 0.72056508
3.3684206 -7.5291338 0.74523062
3.4988458 -7.4844542 0.71068418
3.5270076 -7.1996164 0.70364767
3.587153 -7.0068402 0.68798411
3.6586115 -6.8501186 0.66926259
3.7475827 -6.7375855 0.64582336
3.8292317 -6.6151156 0.62434471
3.9170942 -6.5092788 0.601192
4.0168557 -6.4283214 0.57484037
4.1248593 -6.3629122 0.54627639
4.2470512 -6.3210473 0.51391023
4.4266262 -6.3690839 0.46616834
4.5928063 -6.38762 0.42202848
4.7828946 -6.434886 0.37149295
4.8852406 -6.3475556 0.34446311
3.5005748 -8.823369 0.72431719
3.5145237 -8.3929186 0.72110194
3.3565178 -7.5457225 0.76408666
3.4870989 -7.5022969 0.72942126
3.5404515 -7.2728705 0.71550453
3.5989523 -7.0711846 0.7001881
3.6681519 -6.9057903 0.68198508
3.7498903 -6.7759218 0.66040707
3.828227 -6.6452365 0.63973701
3.9215102 -6.5489974 0.61504936
4.0173106 -6.4601483 0.58968711
4.1258059 -6.3957257 0.56091869
4.2332044 -6.3293605 0.53244609
4.3808432 -6.3286271 0.49319431
4.5880404 -6.4163375 0.43800345
4.8375239 -6.5562172 0.37150416
4.8804097 -6.3791265 0.36031181
3.5027528 -8.9821196 0.73395711
3.506094 -8.5039749 0.73349893
3.322166 -7.5614038 0.78326923
3.4421411 -7.4913774 0.7514267
3.5343175 -7.3548331 0.72703701
3.5875981 -7.134973 0.71306807
3.6587765 -6.9699197 0.69429046
3.7337646 -6.8224998 0.6744839
3.817842 -6.7012811 0.65223616
3.9078498 -6.5968084 0.62839586
3.9953394 -6.4911489 0.60522681
4.1043582 -6.4277043 0.57629168
4.2073345 -6.3537183 0.54897374
4.3344131 -6.3204374 0.51520759
4.5244055 -6.3852754 0.464614
4.6854119 -6.3953233 0.42178226
4.8313794 -6.3768673 0.38297555
3.4986184 -9.1503744 0.74194723
3.4986916 -8.6431274 0.74231619
3.3110394 -7.6607409 0.79301852
3.3976114 -7.4981699 0.7701031
3.5236835 -7.445806 0.73658752
3.5645192 -7.1892381 0.72591805
3.6375065 -7.0246124 0.70662099
3.7182894 -6.8866854 0.68522751
3.7996645 -6.7569585 0.6636712
3.877634 -6.6264162 0.64302075
3.9659736 -6.5215406 0.61959177
4.0754881 -6.4590726 0.59049141
4.1790509 -6.3860111 0.56298506
4.3013396 -6.3453288 0.53046709
4.4543962 -6.3528419 0.48972118
4.6088338 -6.3567276 0.44860983
4.84095 -6.4725013 0.38673124
3.5505371 -8.3900938 0.74253732
3.3920245 -7.5230412 0.7854417
3.5293231 -7.4996319 0.74887419
3.5802717 -7.2616663 0.73548257
3.655391 -7.0973449 0.71559215
3.729954 -6.9416332 0.69584429
3.8044217 -6.794415 0.6761167
3.8879879 -6.673419 0.653943
3.9820096 -6.5780001 0.62896287
4.0784826 -6.489994 0.60332525
4.1874542 -6.4265232 0.57433677
4.3002973 -6.3696713 0.54430985
4.4225192 -6.3276868 0.51177299
4.5916533 -6.3587999 0.4666771
4.8868561 -6.5766201 0.38783264
4.9198112 -6.3837104 0.37920234
3.3313379 -7.5904298 0.81357306
3.4348488 -7.4759307 0.78607124
3.5389202 -7.3693089 0.75841361
3.6064205 -7.1783175 0.74060309
3.6879287 -7.0328889 0.71900624
3.7776384 -6.9139476 0.69519371
3.8600476 -6.7849302 0.67334235
3.9434237 -6.6639867 0.65122223
4.032742 -6.5597868 0.62749958
4.133554 -6.4806781 0.60068393
4.2375364 -6.4086037 0.57301539
4.355021 -6.3604851 0.54171747
4.4923816 -6.3440309 0.50508094
4.7037477 -6.4420815 0.44857359
4.9411054 -6.5675759 0.38510084
3.3242369 -7.6426907 0.82743543
3.4225039 -7.5102124 0.80136842
3.5488124 -7.4603391 0.76772642
3.5969896 -7.2140431 0.75515395
3.6952682 -7.1060033 0.72905785
3.7748311 -6.9602036 0.70799953
3.8586769 -6.8317928 0.68577856
3.947721 -6.7204175 0.66215253
4.0339699 -6.6079273 0.63927305
4.1357884 -6.5295653 0.61220074
4.2359738 -6.4495583 0.58556622
4.3540535 -6.4024234 0.55411869
4.4716129 -6.3529916 0.52281451
4.6196556 -6.3519168 0.48331794
5.0133505 -6.7314353 0.37782776
3.5471718 -8.4517965 0.77558297
3.383779 -7.5255423 0.82014984
3.5240827 -7.5142589 0.78273153
3.5891991 -7.305337 0.76558203
3.6894507 -7.1977367 0.73895293
3.7517457 -7.0064745 0.72253871
3.845083 -6.8968391 0.69775593
3.9272125 -6.7679968 0.67598546
4.0146799 -6.6561413 0.65277195
4.1129079 -6.5697284 0.6266616
4.2185502 -6.4993157 0.59855598
4.3228412 -6.4270906 0.57081223
4.4406266 -6.3788233 0.5394426
4.5731826 -6.3537292 0.50410885
4.8581028 -6.5692945 0.42786196
4.9575195 -6.4775801 0.4014385
3.3366385 -7.5916181 0.85696352
3.4512088 -7.5075717 0.82648444
3.5533898 -7.3936806 0.79932654
3.7486334 -7.1618338 0.74744582
3.8182113 -6.9891558 0.7290166
3.9031835 -6.8615518 0.70645624
3.9932029 -6.7510333 0.68254054
4.0891662 -6.6572032 0.65702808
4.1874547 -6.5708241 0.63089269
4.2838259 -6.4829364 0.60526931
4.3878808 -6.4109154 0.57758623
4.5153413 -6.3800364 0.54363829
4.6581445 -6.3719773 0.50558501
5.00102 -6.6798415 0.41399151
3.5672052 -8.420331 0.80692953
3.4269094 -7.5400691 0.84460723
3.5503607 -7.4832978 0.81171578
3.7460384 -7.2430887 0.75963056
3.8141525 -7.0614657 0.74153203
3.892978 -6.9160609 0.72056627
3.9802256 -6.7971058 0.69734645
4.0729761 -6.6950364 0.6726557
4.1676803 -6.6005898 0.64744025
4.269361 -6.5223713 0.62035984
4.369411 -6.4424996 0.5937143
4.4922285 -6.4041533 0.56098431
4.6198435 -6.3718572 0.52697206
4.954361 -6.6747499 0.43768346
3.5229247 -8.4534912 0.82674706
3.3870301 -7.5624766 0.86299014
3.5339174 -7.572659 0.8237958
3.5924151 -7.3368773 0.80818236
3.7894394 -7.1150365 0.75560349
3.862102 -6.951858 0.73621196
3.9545388 -6.8426952 0.71154469
4.0526366 -6.7503176 0.68536574
4.135457 -6.6297426 0.66326374
4.2422795 -6.5612874 0.63475591
4.3431239 -6.482245 0.6078456
4.4471326 -6.4102297 0.58008873
4.5745511 -6.3793621 0.54608351
4.8448377 -6.5836272 0.47395188
3.5980027 -7.3885837 0.82232636
3.8198662 -7.2236257 0.76298094
3.8722858 -7.0054126 0.74890399
3.9700758 -6.9059801 0.72273898
4.057127 -6.7870908 0.69943804
4.1496806 -6.6851025 0.67467016
4.2486353 -6.5996084 0.64819682
4.3456841 -6.5125885 0.62223196
4.4550238 -6.4502301 0.59298927
4.5730658 -6.4031625 0.56142545
4.8263865 -6.5843201 0.49376893
5.0092797 -6.6315198 0.4448964
3.4569647 -7.5233874 0.86575508
3.5703928 -7.4397349 0.83536857
3.9445896 -6.9505334 0.73504263
4.0370398 -6.8413548 0.71026111
4.1267195 -6.730969 0.68622011
4.2179823 -6.6283641 0.66175818
4.3203101 -6.5510516 0.63434595
4.4256902 -6.4808311 0.60611993
4.5393472 -6.4261432 0.57568491
4.6819539 -6.4208198 0.53751773
5.0040412 -6.7094979 0.4514308
3.557827 -8.4369926 0.84733969
3.5617862 -7.5189929 0.84581327
3.9281995 -6.9948959 0.74734986
4.0257835 -6.895514 0.72114688
4.1167741 -6.7857118 0.69670773
4.2135711 -6.6926527 0.67071843
4.303741 -6.5892987 0.64650118
4.4189692 -6.5375352 0.61559361
4.5239735 -6.4661798 0.58741665
4.642272 -6.4189062 0.55568713
4.8958859 -6.5998197 0.48779729
3.5494561 -8.4977455 0.86050683
4.0270786 -6.940486 0.7320174
4.1193213 -6.8313489 0.70725787
4.2172351 -6.7390027 0.68098342
4.3086033 -6.6363034 0.65646201
4.4155564 -6.5677199 0.6277703
4.5305223 -6.5148087 0.59693342
4.6350989 -6.4424062 0.56887788
4.8771667 -6.608489 0.50400877
5.0238094 -6.597909 0.46468619
3.6109419 -7.4246364 0.85129976
4.0170135 -7.0131612 0.74238819
4.0989285 -6.8771849 0.72041136
4.1978774 -6.7855783 0.69387686
4.2989545 -6.7014608 0.66677326
4.389255 -6.5980124 0.64255416
4.4954309 -6.5285497 0.61408699
4.6144958 -6.483398 0.58216882
4.7623982 -6.4876842 0.5425266
4.9517641 -6.5568628 0.49177852
3.5811639 -8.4218264 0.8654933
3.5791297 -7.4664855 0.86613458
4.0893559 -6.9593911 0.72970116
4.1778793 -6.8410449 0.70603895
4.2759838 -6.7486205 0.67980981
4.3719096 -6.6547561 0.65416497
4.4701586 -6.5683351 0.62789798
4.5851655 -6.5154276 0.59714335
4.7186666 -6.4950395 0.561436
4.9070897 -6.5661936 0.51101708
3.5706165 -8.4729156 0.88489264
3.5867186 -7.5457406 0.88071704
4.0981922 -7.0230508 0.74432707
4.1803293 -6.8870029 0.72243363
4.2753568 -6.7862959 0.69709712
4.376503 -6.7021809 0.67012501
4.4757628 -6.616488 0.64365661
4.5869021 -6.5556622 0.61401588
4.7159638 -6.5276856 0.57958603
4.9086652 -6.6091685 0.52815568
