# .PCD v0.7 - Point Cloud Data file format
VERSION 0.7
FIELDS x y z
SIZE 4 4 4
TYPE F F F
COUNT 1 1 1
WIDTH 478
HEIGHT 1
VIEWPOINT 0 0 0 1 0 0 0
POINTS 478
DATA ascii
-3.7787507 12.733497 0.90243137
-3.4651201 12.522687 0.8328737
-3.6786611 12.586818 0.88236219
-3.6104569 12.566519 0.8839035
-3.8095667 12.684731 0.93112862
-3.5005066 12.429335 0.86561096
-3.7071455 12.51021 0.91400254
-3.8837118 12.713412 0.95755434
-3.5466433 12.518122 0.88698214
-3.7272122 12.70375 0.93120426
-3.6526282 12.442692 0.91574919
-3.8403175 12.597118 0.96110344
-3.2797368 12.484099 0.83533084
-3.5328844 12.403642 0.8918187
-3.7014644 12.627349 0.93393588
-3.5965075 12.405426 0.92171896
-3.7641273 12.637118 0.96374571
-3.3111405 12.421971 0.87484181
-3.5437465 12.406162 0.92758149
-3.7138655 12.62811 0.96998388
-3.2257364 12.479959 0.87802994
-3.4983051 12.319675 0.93739015
-3.6986406 12.415192 0.98453486
-3.1535511 12.547709 0.87500614
-3.4635656 12.252645 0.94076395
-3.6578958 12.367195 0.9868983
-3.8846121 12.351965 1.0382787
-3.2638316 12.387732 0.90851444
-3.5051429 12.330667 0.96269536
-3.691874 12.482476 1.00784
-3.3639731 12.369617 0.93565786
-3.591836 12.358617 0.98755264
-3.8047621 12.401655 1.0369205
-3.202847 12.416881 0.91025406
-3.4847078 12.205142 0.97126985
-3.6622386 12.385488 1.0149375
-3.884182 12.387558 1.0658005
-3.3170176 12.254051 0.94696802
-3.5404067 12.25213 0.99810714
-3.6972268 12.528275 1.0386748
-3.2082868 12.147658 0.92850095
-3.3928216 12.292431 0.97321522
-3.5953386 12.375962 1.0210118
-3.8258705 12.338912 1.0731856
-3.3635957 12.138211 0.98504692
-3.5915656 12.104408 1.0366657
-3.7392097 12.417371 1.0758028
-3.3503046 11.994203 0.99495596
-3.5337691 12.134582 1.0392916
-3.6559813 12.564683 1.0745499
-3.3835969 12.109887 1.0175911
-3.5967774 12.132059 1.0666947
-3.7744012 12.31649 1.1104161
-3.2675383 12.074188 0.9947167
-3.4850302 12.078744 1.0445124
-3.6498125 12.313378 1.0861427
-3.855696 12.379213 1.1343187
-3.3765173 11.946195 1.0260488
-3.5531526 12.113671 1.0692784
-3.6888509 12.493488 1.1067288
-3.395083 12.138574 1.0451097
-3.5954406 12.217216 1.0923853
-3.7936318 12.311957 1.1394373
-2.7305086 12.44124 0.90526098
-3.2976294 11.986641 1.0276397
-3.5041645 12.027555 1.0757452
-3.6406696 12.397158 1.113404
-3.8481009 12.461206 1.1621108
-2.668046 12.422661 0.91028923
-3.1910346 12.142254 1.0258408
-3.4046612 12.164262 1.0754361
-3.6140051 12.201883 1.1243172
-3.8009443 12.353471 1.1700351
-2.745501 12.444437 0.93623006
-2.9475832 12.541702 0.98455471
-3.3142622 11.955046 1.0588356
-3.5049856 12.062073 1.1047148
-3.6428807 12.440181 1.1431665
-3.394242 11.979869 1.0836227
-3.6024892 12.006934 1.1321644
-3.7442491 12.373667 1.1713407
-2.6878541 12.386718 0.94221157
-2.8542371 12.619166 0.98481542
-3.2152004 12.061932 1.0583453
-3.4249907 12.091269 1.1073706
-3.6269886 12.155951 1.1552225
-3.7958529 12.403842 1.1986767
-2.7631204 12.454463 0.96679443
-3.0065317 12.384874 1.0218443
-3.3426948 11.891546 1.0907544
-3.5225291 12.045379 1.1351029
-3.6744516 12.363162 1.1759338
-3.0804455 12.401393 1.0479553
-3.38853 12.012426 1.1122584
-3.6050346 11.998457 1.1620973
-3.7547846 12.334298 1.202762
-2.6947396 12.384406 0.9672429
-2.891278 12.498929 1.0147436
-3.2228715 12.035498 1.0832899
-3.4340835 12.053113 1.132475
-3.6431701 12.076639 1.1812738
-3.7913971 12.440925 1.2220039
-2.7574267 12.460638 0.98678291
-3.3254673 11.922184 1.1087964
-3.5245991 11.986436 1.1559484
-3.6867938 12.253569 1.198073
-2.6985035 12.391666 0.98499924
-2.9096637 12.446178 1.034694
-3.2341518 11.989503 1.1020112
-3.4404192 12.024714 1.1502534
-3.648932 12.046361 1.1987865
-3.7909918 12.45855 1.2385044
-2.8121502 12.620218 1.0291508
-3.1396747 12.164292 1.0972064
-3.386874 12.014105 1.1518203
-3.606194 11.976774 1.2018851
-3.750355 12.369054 1.2417742
-2.7035148 12.378778 1.015167
-2.9234128 12.392303 1.0663596
-3.2344019 11.971588 1.1312538
-3.4459972 11.975401 1.1803597
-3.6464925 12.034356 1.2278353
-3.7993357 12.395804 1.2694293
-2.8304744 12.546844 1.0631715
-3.1690774 12.009455 1.1325213
-3.3908515 11.964369 1.1832771
-3.5963533 11.993775 1.2315459
-3.7373502 12.424224 1.2717923
-2.7049105 12.382882 1.0411515
-2.93962 12.326141 1.0949614
-3.2335625 11.961209 1.1571869
-3.4482286 11.94345 1.2070041
-3.6398947 12.049802 1.2536334
-3.8060284 12.340714 1.2975441
-2.540736 12.491448 1.0093027
-2.7647662 12.495833 1.0617512
-3.1047902 11.948609 1.1316447
-3.3082931 11.99169 1.179975
-3.5160143 12.011426 1.2288833
-3.6967821 12.195191 1.2743664
-3.8888457 12.336486 1.3217441
-2.622664 12.518202 1.0337256
-2.8597112 12.462048 1.0882083
-3.1920762 11.921404 1.1565211
-3.4079359 11.893715 1.2065444
-3.5987728 11.999941 1.2530568
-3.7565539 12.340169 1.295923
-2.6951067 12.466208 1.0615511
-2.9679174 12.231694 1.1213138
-3.2453253 11.922649 1.1808622
-3.458889 11.902811 1.2304817
-3.6378081 12.086279 1.2755187
-3.8195205 12.286688 1.3214992
-2.6297162 12.514757 1.0613722
-2.8971026 12.309759 1.1203258
-3.1988742 11.883267 1.1835032
-3.4100256 11.873144 1.2326707
-3.5932133 12.026907 1.2781229
-3.7725105 12.237054 1.3236368
-3.9509056 12.503883 1.3699152
-2.6802766 12.549344 1.0886567
-2.986136 12.146142 1.1531134
-3.2444103 11.912868 1.2093821
-3.4539809 11.91074 1.2582463
-3.6313162 12.112334 1.3030796
-3.8215804 12.261571 1.3500322
-2.6326506 12.519886 1.0920619
-2.9279583 12.165523 1.1548519
-3.1957076 11.883181 1.2124505
-3.4130836 11.831668 1.2622577
-3.5845516 12.062687 1.3061966
-3.7792768 12.172153 1.3534781
-3.9550886 12.466982 1.3995217
-2.4754295 12.524488 1.0667059
-2.7033346 12.505206 1.1195157
-3.0044987 12.098995 1.1828104
-3.247298 11.93206 1.2365781
-3.4536483 11.947762 1.2849605
-3.6358616 12.127977 1.330518
-3.8286376 12.265549 1.3778101
-2.5640008 12.530535 1.0949507
-2.8474386 12.234879 1.1559507
-3.1309876 11.874071 1.2158622
-3.3415873 11.861889 1.2647326
-3.5211813 12.043503 1.3096896
-3.7196608 12.123134 1.3573036
-3.8924685 12.43766 1.4029496
-2.64715 12.535812 1.1241758
-2.9448454 12.149184 1.1868774
-3.20066 11.913388 1.2424175
-3.4225001 11.830201 1.2926643
-3.5887051 12.109001 1.336167
-3.7936499 12.147206 1.3845649
-3.969348 12.460128 1.4308635
-2.5035589 12.503331 1.1012084
-2.7564301 12.354302 1.1575742
-3.0234947 12.091985 1.2153035
-3.2626486 11.932445 1.2682937
-3.4614258 11.995495 1.3156978
-3.6511807 12.134331 1.3623019
-3.8439803 12.279901 1.4097304
-2.4483895 12.524398 1.1005834
-2.6696689 12.532058 1.1524134
-2.9632564 12.14244 1.2143247
-3.209748 11.943504 1.2685046
-3.4339497 11.838404 1.3190858
-3.5999405 12.135347 1.3629584
-3.8134553 12.102038 1.4122746
-3.9861403 12.462856 1.4588063
-2.5146837 12.510385 1.1228018
-2.7752295 12.309778 1.1805446
-3.0316398 12.084053 1.236894
-3.2655678 11.941869 1.2893836
-3.4548569 12.07226 1.3360188
-3.6615674 12.090306 1.3848403
-3.8471539 12.303478 1.4320115
-2.6010664 12.533898 1.1440785
-2.8834605 12.203147 1.205019
-3.1423151 11.935271 1.261474
-3.3647292 11.839942 1.3122473
-3.5360298 12.097175 1.3569078
-3.7418962 12.123294 1.4058282
-3.9140227 12.494035 1.4525913
-2.4567053 12.511184 1.118044
-2.6829441 12.487172 1.17099
-2.9699543 12.10445 1.2322594
-3.2041104 11.962284 1.2850975
-3.4258254 11.864984 1.3357533
-3.5994444 12.120669 1.3809785
-3.8077757 12.125068 1.4301816
-3.9864206 12.454372 1.4778236
-2.5222855 12.524904 1.1398716
-2.7952573 12.243217 1.1997976
-3.0331984 12.103612 1.2537887
-3.2686927 11.93949 1.306795
-3.4573662 12.077985 1.3537301
-3.6696579 12.044424 1.4034067
-3.8462584 12.355279 1.4503353
-2.6025269 12.556833 1.163635
-2.8888679 12.184131 1.2253058
-3.1336942 11.982903 1.2799665
-3.3598974 11.85592 1.331436
-3.5395324 12.061938 1.3773476
-3.7415528 12.1159 1.4260633
-3.9174294 12.475043 1.4735968
-2.4749484 12.525576 1.1357448
-2.708009 12.460144 1.1899363
-2.9874685 12.094382 1.2502499
-3.2139151 11.989543 1.3022352
-3.4283488 11.939806 1.3522668
-3.6245904 12.025144 1.4001799
-3.8106353 12.236425 1.4477191
-2.5305142 12.546984 1.1596389
-2.8097606 12.213668 1.2204996
-3.0394502 12.111306 1.2733141
-3.2692182 11.97479 1.3255993
-3.4655643 12.062027 1.373547
-3.6770909 12.026528 1.423126
-3.8496304 12.405467 1.470102
-2.4758222 12.53731 1.1582962
-2.7116311 12.450109 1.2128757
-2.9859524 12.091698 1.2723007
-3.20979 11.99473 1.3238862
-3.4187374 11.982781 1.3732845
-3.6236186 11.99684 1.4221292
-3.8081059 12.236284 1.4697015
-2.5277386 12.567405 1.1843861
-2.8057485 12.221755 1.2449995
-3.0447032 12.048108 1.2990699
-3.2535579 12.048123 1.3487538
-3.4664576 12.004587 1.3987064
-3.6686542 12.046684 1.4474802
-3.8461356 12.404141 1.4954052
-2.3978348 12.526204 1.1607801
-2.603987 12.606355 1.2112361
-2.8903344 12.189177 1.2727443
-3.1423082 11.904363 1.3282075
-3.3386235 11.98153 1.3762727
-3.546607 11.96576 1.425612
-3.7376068 12.125478 1.4737494
-3.9192576 12.481407 1.5228381
-2.4528646 12.555847 1.188977
-2.6878538 12.466547 1.2437062
-2.9591022 12.105721 1.302603
-3.1833553 11.996852 1.3544433
-3.3850775 12.04262 1.4034628
-3.5966752 11.995225 1.4532986
-3.7836864 12.223019 1.5018237
-3.9761913 12.477609 1.552108
-2.5943863 12.671971 1.241522
-2.8854864 12.202996 1.3034409
-3.1429498 11.856514 1.3593696
-3.3239098 12.060948 1.4063132
-3.5416729 11.95391 1.4567884
-3.7335694 12.111907 1.505567
-3.918987 12.446219 1.5557926
-2.4432712 12.572209 1.2168425
-2.6679938 12.540167 1.2704451
-2.944283 12.12773 1.3299183
-3.171416 11.987226 1.3822353
-3.3687704 12.071016 1.4312398
-3.5802023 12.021864 1.481349
-3.7706707 12.228148 1.5308058
-3.965605 12.471102 1.581971
-3.0497272 11.943266 1.357507
-3.2377851 12.098329 1.4055897
-3.4562228 11.991485 1.4564712
-3.6518979 12.109778 1.5057573
-3.8389978 12.414258 1.5561959
-2.6854703 12.574239 1.2963639
-2.9641097 12.1199 1.3558342
-3.1886325 11.987371 1.4078546
-3.382525 12.109276 1.4569265
-3.5932527 12.068354 1.5072156
-3.7866764 12.263083 1.557451
-3.9864349 12.454462 1.6091617
-2.727 12.658523 1.3219903
-3.0328114 11.963806 1.3838696
-3.2200546 12.137174 1.4323454
-3.4362788 12.048465 1.4832158
-3.6373498 12.115301 1.5331622
-3.8245258 12.458115 1.5846163
-2.8774343 12.197719 1.3542682
-3.1287892 11.846921 1.4091066
-3.2984676 12.187536 1.4563255
-3.5162625 12.077042 1.5072619
-3.7182319 12.142106 1.5574567
-3.9129639 12.39336 1.6091815
-2.650964 12.667802 1.3205967
-2.937088 12.13188 1.3807168
-3.158318 12.017292 1.4324968
-3.3525951 12.147488 1.4820439
-3.5627031 12.114745 1.532566
-3.7543812 12.377705 1.5838246
-3.9626906 12.437518 1.6355437
-3.0351455 11.926277 1.4088145
-3.2150416 12.177447 1.4570847
-3.4284728 12.116728 1.508006
-3.6356039 12.111966 1.5583819
-3.8235338 12.492997 1.6109056
-2.8813167 12.151967 1.3819211
-3.1189139 11.888225 1.4351388
-3.2920527 12.227289 1.4833412
-3.5064216 12.15471 1.5342911
-3.7106829 12.207994 1.5850096
-3.9105785 12.407505 1.6372565
-2.9367785 12.135077 1.4110148
-3.1518161 12.06811 1.4623121
-3.3462365 12.216423 1.5124438
-3.5582857 12.16178 1.563235
-3.752459 12.432899 1.6155111
-3.9633138 12.450757 1.6673138
-3.0414898 11.957859 1.4395082
-3.22489 12.197346 1.4886924
-3.4372265 12.144569 1.5396539
-3.6446595 12.137834 1.5902534
-3.83636 12.517043 1.6439983
-2.8809638 12.154641 1.4150994
-3.1139214 11.908516 1.4676557
-3.2917657 12.225952 1.5170612
-3.5000238 12.231132 1.5681843
-3.7067575 12.26252 1.6194154
-3.9100692 12.430128 1.6723081
-2.9452486 12.146447 1.443258
-3.1560667 12.117282 1.4943918
-3.3538845 12.243835 1.545224
-3.5663044 12.177225 1.5960596
-3.7622249 12.466469 1.6494343
-3.9739196 12.472339 1.7014334
-3.0346222 11.978337 1.4686664
-3.2202482 12.216092 1.5185778
-3.4341588 12.131397 1.5694938
-3.6392457 12.162639 1.6203806
-3.8351765 12.520034 1.6750176
-2.8915057 12.176788 1.4397662
-3.1162496 11.99826 1.4916883
-3.3033493 12.244318 1.5421064
-3.5107472 12.26755 1.5934478
-3.7183084 12.29705 1.6449417
-3.9234219 12.472778 1.6984992
-2.9644861 12.147747 1.4654368
-3.1707768 12.166486 1.5164576
-3.3754487 12.211454 1.5675564
-3.5832624 12.212799 1.6186351
-3.7803218 12.560228 1.6733587
-3.9944777 12.494223 1.7247705
-3.0331211 12.028797 1.4873908
-3.2243154 12.225009 1.5379819
-3.4368427 12.148343 1.5889565
-3.6399817 12.237679 1.6405814
-3.8409975 12.553305 1.6957226
-2.8824408 12.2279 1.4608002
-3.1046443 12.067325 1.5127087
-3.3012426 12.211938 1.5637625
-3.5052986 12.293167 1.6155202
-3.7137063 12.310787 1.6672149
-3.9205921 12.474628 1.7211478
-2.9411237 12.157917 1.4863364
-3.1460598 12.194712 1.5376563
-3.3563774 12.147963 1.5888144
-3.5587077 12.257274 1.6407878
-3.7602496 12.562901 1.696077
-3.9736176 12.524936 1.7481468
-3.0316815 12.0471 1.5106385
-3.2246938 12.241597 1.5618736
-3.4381368 12.133077 1.6127732
-3.6392682 12.300531 1.6655374
-3.8447371 12.554355 1.7209154
-3.0952592 12.115092 1.5332918
-3.297518 12.188092 1.5847112
-3.4993174 12.327427 1.637183
-3.7086878 12.323205 1.6890061
-3.9169571 12.495182 1.7436557
-2.9423914 12.167407 1.5047081
-3.1444182 12.252269 1.5563245
-3.3588893 12.123766 1.6073354
-3.5595131 12.3012 1.660208
-3.7643139 12.605013 1.7163072
-3.0282795 12.045747 1.5320717
-3.2222216 12.24842 1.5837752
-3.4342909 12.147941 1.6346985
-3.6361527 12.353521 1.6884186
-3.8447363 12.585449 1.7442663
-3.0837712 12.14235 1.5605286
-3.2888494 12.173495 1.6120747
-3.4897385 12.370871 1.6655021
-3.6995895 12.37468 1.7177526
-2.9524841 12.105549 1.5360996
-3.1474953 12.308205 1.5882477
-3.3631845 12.137725 1.6389418
-3.565141 12.33322 1.6926924
-3.7731581 12.635048 1.7498349
-3.0281157 12.042717 1.5613539
-3.2235889 12.243516 1.6136869
-3.4333043 12.180992 1.6649138
-3.6375222 12.374641 1.7193019
-3.1011827 12.16853 1.5869054
-3.3072572 12.187768 1.6387159
-3.5100486 12.383252 1.6928205
-3.720108 12.385102 1.745319
-2.950546 12.073027 1.5572169
-3.1423666 12.363752 1.6103299
-3.3584735 12.151358 1.6607629
-3.5621734 12.344991 1.7151619
-3.0343928 12.039692 1.5783432
-3.2299271 12.278672 1.6314791
-3.4391873 12.234261 1.6832193
-3.645997 12.406053 1.7380364
-2.9568079 12.070796 1.5736083
-3.1513791 12.349724 1.6271515
-3.3639963 12.195323 1.6780428
-3.5700939 12.377062 1.7328702
-3.0336306 12.046103 1.5979496
-3.2306685 12.303246 1.6517231
-3.4391212 12.316887 1.704363
-3.1034281 12.410226 1.6245812
-3.3178864 12.215848 1.6753556
-3.5244772 12.367583 1.7297885
-2.9783747 12.04646 1.5958902
-3.1745358 12.333577 1.6499069
-3.3848727 12.227242 1.7011122
-3.0358427 12.041848 1.6145304
-3.232712 12.40714 1.6698437
-3.4430335 12.378898 1.7224163
-3.1014855 12.525043 1.642928
-3.3159335 12.338743 1.6941408
-2.9583046 12.032074 1.6115792
-3.1561887 12.337371 1.6662891
-3.3654118 12.26912 1.7181274
-3.0389864 12.055354 1.6360924
-3.2385712 12.468838 1.6929015
-3.3015387 12.488957 1.7186493
-2.9537194 12.054792 1.632141
-3.1531885 12.458369 1.6888397
-3.0266933 12.037194 1.6547339
-3.2287376 12.56896 1.713936
-2.9510851 12.018177 1.6430651
-3.1526716 12.560043 1.7018696
