# .PCD v0.7 - Point Cloud Data file format
VERSION 0.7
FIELDS x y z
SIZE 4 4 4
TYPE F F F
COUNT 1 1 1
WIDTH 922
HEIGHT 1
VIEWPOINT 0 0 0 1 0 0 0
POINTS 922
DATA ascii
-3.9455516 -4.8505149 -0.15998854
-3.9266922 -4.9291143 -0.15000132
-3.852844 -4.9219003 -0.13025342
-3.7202804 -4.8322539 -0.15666988
-3.9410596 -4.9294372 -0.1001613
-3.7201097 -4.9048362 -0.14533946
-3.6851225 -4.7462502 -0.15084235
-3.7736819 -4.9305472 -0.11718211
-3.6247454 -4.8517818 -0.14689377
-3.6401684 -4.6597586 -0.14175762
-3.8415458 -4.9327512 -0.083530024
-3.620487 -4.9078951 -0.12840362
-3.5855308 -4.7491512 -0.13389176
-3.9373834 -4.9334064 -0.053048015
-3.7011356 -4.9234257 -0.10106613
-3.5199056 -4.8672066 -0.1374034
-3.5597022 -4.6583495 -0.12715007
-3.7826936 -4.9322667 -0.073747598
-3.5535288 -4.9130559 -0.1201684
-3.5184784 -4.7541637 -0.12566975
-3.8531578 -4.9326997 -0.04342204
-3.6168365 -4.9226513 -0.091337442
-3.4679501 -4.8439374 -0.12079663
-3.4753625 -4.6575332 -0.11741247
-3.9307833 -4.9373484 -0.017876415
-3.7033055 -4.9248166 -0.064006351
-3.4742935 -4.9056649 -0.11038402
-3.4557514 -4.7358198 -0.1124989
-3.8030808 -4.9253783 -0.038854811
-3.5508997 -4.9269261 -0.09018033
-3.42629 -4.8311925 -0.11460967
-3.4339871 -4.6450853 -0.11124488
-3.8610704 -4.9358792 -0.019173153
-3.633631 -4.9232683 -0.065491669
-3.4046626 -4.9040465 -0.11206184
-3.3943288 -4.7286563 -0.11252015
-3.9144745 -4.9492779 -0.0047176904
-3.703434 -4.9278045 -0.047815301
-3.4591761 -4.9233031 -0.097888745
-3.3345985 -4.8274899 -0.12255505
-3.9788895 -4.9627581 0.013330081
-3.7842121 -4.9321742 -0.02641269
-3.5488925 -4.9252448 -0.07473401
-3.3118455 -4.9114146 -0.12334621
-3.3095858 -4.7301946 -0.12212341
-3.821125 -4.9470677 -0.0076397127
-3.6102026 -4.9254699 -0.050879098
-3.3580463 -4.9265714 -0.10282882
-3.209199 -4.8473539 -0.1327296
-3.8884883 -4.9671278 0.010519886
-3.685889 -4.9422474 -0.030987337
-3.4583514 -4.9290996 -0.07774695
-3.2212393 -4.9149981 -0.12647152
-3.2026649 -4.7446918 -0.12864934
-3.9607961 -4.9742622 0.033199541
-3.7665737 -4.9462605 -0.0065332907
-3.5477061 -4.9304924 -0.051466882
-3.303417 -4.9256439 -0.10174549
-3.1626477 -4.8407845 -0.1299095
-3.9886048 -4.9973125 0.053177368
-3.8102036 -4.9594727 0.016816229
-3.6076553 -4.9346504 -0.024646647
-3.3722062 -4.9273472 -0.07305795
-3.1430976 -4.9074759 -0.1200405
-3.1327853 -4.7317824 -0.12043458
-3.9832489 -5.0643573 0.060064845
-3.8814175 -4.966217 0.040056147
-3.6717503 -4.9502931 -0.0029661406
-3.4607515 -4.9283943 -0.046206128
-3.2085071 -4.9291606 -0.098164111
-3.0920558 -4.8273025 -0.12114714
-3.9882748 -5.3178053 0.063648447
-3.995573 -5.1250844 0.067055836
-3.9463551 -4.9841118 0.058309235
-3.7527006 -4.9586782 0.018659743
-3.5502012 -4.9337978 -0.022819012
-3.3068349 -4.9322371 -0.072949409
-3.1099107 -4.8894963 -0.1131042
-3.0918097 -4.7197556 -0.11515701
-3.977237 -5.761364 0.06417755
-3.958842 -5.5785179 0.062188994
-3.9374418 -5.4033689 0.059502035
-3.942621 -5.2099299 0.062500589
-3.9221263 -5.0435305 0.05991466
-3.8052723 -4.9580498 0.036566716
-3.595762 -4.9421544 -0.0066614985
-3.3849177 -4.9202752 -0.050107464
-3.1248176 -4.9267755 -0.10403892
-3.0408711 -4.802494 -0.12018691
-3.9925578 -5.8215742 0.067431092
-3.9508197 -5.6590271 0.060411211
-3.9347453 -5.4769297 0.058921352
-3.9155886 -5.3025346 0.056712184
-3.9080563 -5.1228051 0.056975316
-3.8665226 -4.9755888 0.049842574
-3.6652408 -4.9562583 0.0082167257
-3.4706252 -4.9253159 -0.031906981
-3.211467 -4.9353647 -0.08586131
-3.0467131 -4.869719 -0.11942989
-3.0289361 -4.7004075 -0.12140426
-3.9311841 -5.7474103 0.058532115
-3.9130619 -5.5648155 0.056628063
-3.8993063 -5.3833723 0.055622883
-3.897362 -5.1967554 0.05713325
-3.8771231 -5.0306277 0.054619659
-3.7374194 -4.9638553 0.026185682
-3.5278654 -4.9477611 -0.017327532
-3.3090732 -4.9315705 -0.062767066
-3.07287 -4.9205346 -0.11188914
-3.0052826 -4.7851996 -0.12458866
-3.9094996 -5.8146482 0.057800826
-3.8823998 -5.6387095 0.053950574
-3.859453 -5.4636288 0.050961599
-3.8406241 -5.2894835 0.048826523
-3.8334117 -5.110024 0.049183622
-3.7768958 -4.9755006 0.038734082
-3.5757515 -4.9561038 -0.0032473891
-3.3655581 -4.9369855 -0.047131188
-3.122268 -4.935061 -0.098135151
-2.9415333 -4.8806796 -0.13547476
-2.9644315 -4.6835055 -0.12861949
-3.957819 -5.8476481 0.06757921
-3.8652692 -5.7336669 0.049314432
-3.8692076 -5.5312696 0.052286018
-3.8413043 -5.3635926 0.048190922
-3.8322484 -5.183794 0.048189517
-3.8122687 -5.0179381 0.045741431
-3.6728423 -4.9513955 0.017110584
-3.4635818 -4.9355164 -0.026751475
-3.2292638 -4.931282 -0.076009586
-2.9931531 -4.9201713 -0.12557305
-2.9418292 -4.7736421 -0.13482282
-3.9831722 -5.8941689 0.077065162
-3.8755453 -5.7948909 0.055474401
-3.834348 -5.6328397 0.048560627
-3.8261163 -5.4446411 0.048875049
-3.8001544 -5.2773871 0.045227725
-3.8006628 -5.0918379 0.047357157
-3.7291415 -4.9701571 0.03361854
-3.5281012 -4.9508848 -0.0085225208
-3.3180079 -4.93189 -0.052575264
-3.0668681 -4.9358883 -0.10552768
-2.9102972 -4.8645196 -0.13773574
-2.9171333 -4.6788063 -0.1342715
-3.8773911 -5.8434076 0.063665733
-3.8063304 -5.7091136 0.050119232
-3.8033729 -5.5139222 0.05164304
-3.7536037 -5.3663125 0.042747557
-3.7519405 -5.1800952 0.044447795
-3.731981 -5.0143766 0.042055558
-3.5772171 -4.960289 0.0099284416
-3.3678291 -4.9442916 -0.034170989
-3.1412976 -4.934063 -0.081959136
-2.9051728 -4.9229794 -0.13176876
-2.8618698 -4.7708721 -0.13924915
-3.918407 -5.8761082 0.077394441
-3.7970314 -5.7909775 0.052634813
-3.7559969 -5.6290517 0.045736179
-3.7405932 -5.4476032 0.044482391
-3.7072403 -5.2868371 0.039199498
-3.69259 -5.1138668 0.038012225
-3.636097 -4.9793415 0.027538601
-3.4350486 -4.9599481 -0.014822902
-3.2406626 -4.9289479 -0.055644736
-2.9897382 -4.9331155 -0.10883216
-2.8252921 -4.8675594 -0.142933
-2.8240099 -4.6873612 -0.14121057
-3.9520481 -5.9212089 0.087997086
-3.8230391 -5.844214 0.061502878
-3.7520351 -5.7099104 0.047944788
-3.7418728 -5.5214067 0.047888473
-3.6994269 -5.3670974 0.040608086
-3.6828489 -5.1937218 0.039024238
-3.6779106 -5.0151544 0.039967977
-3.5232151 -4.9610462 0.0077711842
-3.3139017 -4.9450307 -0.036431588
-3.0874457 -4.9347763 -0.084333777
-2.8433936 -4.929399 -0.13602214
-2.8000517 -4.7771411 -0.14351568
-3.9869332 -5.9295301 0.10594222
-3.8371513 -5.8754001 0.074716575
-3.7299938 -5.7764726 0.053052373
-3.6676376 -5.6350346 0.041385375
-3.64486 -5.4600697 0.03850751
-3.6261957 -5.286047 0.036491551
-3.5965259 -5.1257763 0.031983722
-3.555162 -4.9785228 0.024843786
-3.3619058 -4.9529839 -0.015942821
-3.1519573 -4.9339242 -0.060352478
-2.9089253 -4.932065 -0.111986
-2.7364728 -4.8721018 -0.14796749
-2.727001 -4.6972685 -0.14802037
-3.8871467 -5.8987803 0.090223707
-3.7655087 -5.8151608 0.065322548
-3.652107 -5.7222047 0.042280369
-3.6344638 -5.5401111 0.040617362
-3.6064293 -5.3722906 0.036583547
-3.5747774 -5.2116165 0.03169908
-3.5847087 -5.0200686 0.036011659
-3.4298866 -4.9657521 0.003721003
-3.2282448 -4.943491 -0.038892165
-2.9938545 -4.9390035 -0.088673562
-2.7576826 -4.9276423 -0.13875796
-2.6981409 -4.7865262 -0.1497951
-3.932446 -5.9215817 0.10746282
-3.7828016 -5.8675227 0.076271728
-3.6687014 -5.775557 0.05307655
-3.5847704 -5.6543341 0.036633611
-3.5836513 -5.4591236 0.038653046
-3.565033 -5.2851019 0.036707394
-3.5354049 -5.1248159 0.032262154
-3.4864278 -4.9837685 0.023482215
-3.2853243 -4.9640999 -0.019047624
-3.0830302 -4.938756 -0.061763406
-2.847858 -4.9308729 -0.11167424
-2.6593139 -4.8821564 -0.15119809
-2.6659949 -4.6960182 -0.14762197
-3.9606884 -5.9360442 0.12749368
-3.7835431 -5.912118 0.090176299
-3.6898756 -5.8004584 0.071633026
-3.5767999 -5.7076941 0.04874137
-3.5232008 -5.5592527 0.039145689
-3.5097065 -5.3779259 0.038458113
-3.4780624 -5.2171087 0.033673875
-3.4728284 -5.0379963 0.034716196
-3.3331668 -4.9709082 0.005875322
-3.1314843 -4.9484076 -0.036668446
-2.9128609 -4.9319434 -0.082881421
-2.6688304 -4.9263215 -0.13461819
-2.6094019 -4.785182 -0.14553723
-3.8517175 -5.9212103 0.11066285
-3.7229869 -5.8461008 0.084278084
-3.5950801 -5.7681999 0.05810168
-3.5040867 -5.6538134 0.040201195
-3.4883826 -5.4718328 0.039097074
-3.469589 -5.2975464 0.037245188
-3.4473279 -5.1306376 0.034568001
-3.4059322 -4.983222 0.027594848
-3.2203228 -4.9513226 -0.011381385
-3.0025098 -4.9380317 -0.057418719
-2.7593536 -4.9358416 -0.10896505
-2.5787659 -4.8812528 -0.14660023
-2.5773492 -4.700624 -0.14468586
-3.9045064 -5.9365644 0.13014488
-3.7411361 -5.8984971 0.096001856
-3.6547072 -5.7801309 0.079159893
-3.5133457 -5.7149582 0.050017346
-3.4668667 -5.5596962 0.042101044
-3.4385877 -5.3914671 0.038203903
-3.4141858 -5.2239604 0.035120122
-3.4088221 -5.0447125 0.036218058
-3.2767162 -4.9713225 0.0091386754
-3.0749815 -4.948791 -0.03333237
-2.8563042 -4.9322882 -0.079467915
-2.6042111 -4.9323497 -0.13289469
-2.5527601 -4.7854857 -0.14196742
-3.942678 -5.9413757 0.15388557
-3.7454498 -5.9409966 0.11215556
-3.6721179 -5.8095098 0.098268561
-3.5376654 -5.7390471 0.070690304
-3.4182687 -5.6520839 0.046502635
-3.3879297 -5.4833088 0.042175751
-3.368921 -5.3087425 0.040320046
-3.3388987 -5.1478958 0.035963692
-3.312485 -4.987637 0.032364823
-3.1189435 -4.9615693 -0.0082699331
-2.9165676 -4.9360347 -0.050781615
-2.6653702 -4.9395089 -0.10398977
-2.4926825 -4.8790436 -0.13978608
-2.483124 -4.7039084 -0.13963279
-3.9997959 -5.9463167 0.17289189
-3.8237743 -5.9268532 0.13585301
-3.7159235 -5.8323755 0.11418968
-3.5814364 -5.763586 0.086563632
-3.4117808 -5.7257857 0.051101781
-3.3652141 -5.5702357 0.043178987
-3.3442421 -5.3951845 0.040923268
-3.3048949 -5.2403479 0.03452237
-3.2993619 -5.0606909 0.035594702
-3.1901517 -4.9683914 0.013615559
-2.9806612 -4.9517355 -0.030548742
-2.76194 -4.9349465 -0.076668091
-2.5258172 -4.9232764 -0.1265379
-2.4583814 -4.7876611 -0.13912866
-3.8909311 -5.9332533 0.15443222
-3.7281621 -5.8973608 0.12039255
-3.6556351 -5.7665892 0.10667691
-3.4651995 -5.7517529 0.066507719
-3.3384309 -5.6712275 0.040661652
-3.3224938 -5.4888363 0.039591409
-3.296025 -5.3206077 0.036111403
-3.2583275 -5.1658273 0.03008127
-3.2469912 -4.9927397 0.029871305
-3.0611656 -4.9604034 -0.0091010034
-2.8509867 -4.9407272 -0.053395569
-2.6077046 -4.9381847 -0.10492473
-2.4350893 -4.8776593 -0.14074291
-2.4256191 -4.702528 -0.14052996
-3.910995 -5.9507322 0.16671683
-3.7212727 -5.9453335 0.1265205
-3.6754112 -5.7869611 0.11889163
-3.5276096 -5.7326469 0.088244267
-3.2940414 -5.7563581 0.038354237
-3.2760861 -5.5734506 0.03697592
-3.2477264 -5.4047823 0.033201985
-3.2232516 -5.2368379 0.030242026
-3.2178307 -5.0571718 0.031484336
-3.1009724 -4.9709067 0.0078304214
-2.9070373 -4.9419298 -0.03294728
-2.6805224 -4.9309397 -0.080878727
-2.4364066 -4.9247632 -0.1326106
-2.3770757 -4.7833743 -0.14332023
-3.8490584 -5.9486322 0.16518573
-3.7069659 -5.8929639 0.13579489
-3.6343412 -5.7636023 0.12217698
-3.4094627 -5.7856708 0.074130349
-3.2394016 -5.7471085 0.038564313
-3.2143803 -5.5709977 0.035702139
-3.1787181 -5.4088435 0.030388039
-3.1617205 -5.2343578 0.029206416
-3.1563895 -5.0547013 0.030576233
-3.0395854 -4.968369 0.0069805002
-2.837852 -4.9452739 -0.035525475
-2.6033323 -4.939858 -0.085237682
-2.3750713 -4.9218526 -0.13344871
-2.3239307 -4.7748756 -0.14226002
-3.8800628 -5.9595389 0.18380135
-3.7044036 -5.9418039 0.14675801
-3.6650157 -5.7775569 0.14071229
-3.4828248 -5.7602987 0.10227443
-3.2000661 -5.8342285 0.041197184
-3.1729817 -5.6576877 0.03793804
-3.1427217 -5.4885931 0.033899527
-3.1238074 -5.3137264 0.032350842
-3.1014192 -5.1462288 0.029961731
-3.082855 -4.9795895 0.028374821
-2.8816528 -4.9591956 -0.014058912
-2.6792793 -4.9331145 -0.056660656
-2.4360178 -4.9301634 -0.10827355
-2.2634933 -4.8693523 -0.14404975
-2.2705803 -4.6832323 -0.1399176
-3.9440546 -5.9619641 0.20266201
-3.7757223 -5.9391804 0.16720849
-3.7290556 -5.7832856 0.1594889
-3.5613441 -5.7542696 0.12425473
-3.2167888 -5.893878 0.049057286
-3.1594913 -5.7445908 0.038984772
-3.1345515 -5.5684595 0.036167823
-3.1063609 -5.3997564 0.032555819
-3.0820518 -5.2317924 0.02975918
-3.0691993 -5.0583806 0.029473638
-2.9677629 -4.9596024 0.0093079023
-2.7583303 -4.9425082 -0.034965437
-2.5317445 -4.9311185 -0.082965396
-2.2875512 -4.9245172 -0.13477641
-2.2526207 -4.7662573 -0.13996881
-3.9957302 -5.9713373 0.22072928
-3.8211808 -5.9579639 0.18381721
-3.7129524 -5.8679509 0.16209064
-3.6267505 -5.7546053 0.14537728
-3.3400924 -5.8422942 0.083195187
-3.1411498 -5.832407 0.041043237
-3.1140997 -5.655858 0.037802305
-3.0838737 -5.4867554 0.033780102
-3.0649884 -5.3118877 0.032251921
-3.0501885 -5.1380577 0.031578213
-3.0087709 -4.9901185 0.024877602
-2.8306575 -4.9512219 -0.012435324
-2.6205075 -4.9311166 -0.056827791
-2.3772326 -4.9280772 -0.10850843
-2.2127759 -4.8615742 -0.14252818
-2.2118275 -4.6810918 -0.14016175
-3.8606601 -5.9580555 0.20077556
-3.7123718 -5.9133067 0.16979723
-3.6525207 -5.7720447 0.15904121
-3.4433312 -5.7852201 0.11425593
-3.0980682 -5.9239159 0.038677279
-3.0689216 -5.74682 0.0349731
-3.0366609 -5.5771933 0.030502152
-3.015718 -5.4016862 0.028526232
-2.9988751 -5.2271724 0.027411859
-2.9860981 -5.0537472 0.027149076
-2.8769729 -4.9610038 0.0051988754
-2.6674228 -4.9436035 -0.039236408
-2.4407218 -4.9318771 -0.087411396
-2.2044396 -4.9192448 -0.13761799
-2.161458 -4.7665019 -0.14461662
-3.9061189 -5.9664583 0.21666488
-3.7581768 -5.9235678 0.18566513
-3.6910982 -5.7906399 0.17322665
-3.5169606 -5.770638 0.13630518
-3.090121 -5.9970403 0.041883267
-3.0378854 -5.8403578 0.032951895
-3.0108285 -5.6635251 0.029685263
-2.9952664 -5.4809632 0.028959097
-2.9691484 -5.3125272 0.025775058
-2.9393308 -5.1511798 0.021699494
-2.9207942 -4.9842486 0.020115571
-2.7272606 -4.9572587 -0.02085495
-2.5248988 -4.9307566 -0.063719742
-2.2816269 -4.9273334 -0.11565471
-2.1172247 -4.8605261 -0.14983633
-2.1082299 -4.6853652 -0.14926551
-3.9719031 -5.9670801 0.23491925
-3.8112354 -5.9409733 0.20092145
-3.7034035 -5.852746 0.17911334
-3.5969696 -5.7624903 0.15763135
-3.1730287 -5.9936142 0.063643076
-3.0287371 -5.928144 0.033707809
-2.9852555 -5.7644682 0.02673828
-2.9454875 -5.6010833 0.020559656
-2.9316092 -5.4185319 0.02019313
-2.9220617 -5.2372322 0.020736687
-2.9015682 -5.069787 0.018740438
-2.7999458 -4.9704657 -0.0015851801
-2.6059153 -4.9407372 -0.042674251
-2.379288 -4.9289074 -0.090995125
-2.1350574 -4.921844 -0.14315058
-2.0839651 -4.7744865 -0.15198059
-3.83885 -5.9485974 0.21691869
-3.711091 -5.8838601 0.1904514
-3.6177154 -5.7803183 0.17191286
-3.4024804 -5.8028507 0.12543608
-2.9539835 -6.0492435 0.025726464
-2.9293594 -5.8641615 0.023100441
-2.9019465 -5.6867895 0.019765502
-2.8713555 -5.5168562 0.015642568
-2.8521249 -5.3411613 0.014039488
-2.8294251 -5.1728134 0.0115877
-2.8182368 -4.9991398 0.0116799
-2.6399858 -4.9595299 -0.025976965
-2.4375656 -4.9327517 -0.069002308
-2.194232 -4.9290285 -0.12113339
-2.0055695 -4.878798 -0.16087309
-2.004473 -4.6975813 -0.15850759
-3.8935456 -5.9562426 0.23438689
-3.7526832 -5.9079633 0.20489918
-3.665452 -5.7983222 0.1878024
-3.4849169 -5.787457 0.14926317
-2.9493206 -6.1301479 0.029439507
-2.9014444 -5.9654713 0.021581853
-2.8716609 -5.7874546 0.017802224
-2.8460741 -5.6102352 0.014908327
-2.8098335 -5.4469385 0.0095300833
-2.79229 -5.2713475 0.0083416132
-2.7712095 -5.1030717 0.0062881419
-2.7075994 -4.9723248 -0.0054320539
-2.5056181 -4.9482722 -0.048381083
-2.2866912 -4.9301548 -0.095050536
-2.0423353 -4.9227591 -0.14733173
-1.9668243 -4.7918262 -0.16160102
-3.9383435 -5.970911 0.25203249
-3.797678 -5.9243193 0.22256692
-3.683594 -5.8452206 0.19927406
-3.5571084 -5.7782755 0.17314544
-2.9291596 -6.2257934 0.0320017
-2.8582697 -6.0816736 0.018917579
-2.8331442 -5.8959455 0.016251516
-2.8052299 -5.7179284 0.012875581
-2.7814939 -5.54075 0.010384183
-2.7544403 -5.3709621 0.0070735971
-2.7388425 -5.1956239 0.0062990808
-2.719629 -5.0275817 0.004644047
-2.57199 -4.9630547 -0.026055465
-2.3694818 -4.9360428 -0.069066256
-2.1260521 -4.9320531 -0.12118585
-1.9292346 -4.8872042 -0.16271566
-1.9116838 -4.7166228 -0.16397704
-3.9789114 -5.9615517 0.2774888
-3.8194132 -5.9394803 0.24371475
-3.6985869 -5.8692117 0.21892087
-3.5719049 -5.8037109 0.19280382
-3.2344263 -5.9569511 0.11838907
-2.799886 -6.1910949 0.022024512
-2.7722478 -6.0045872 0.018869719
-2.7562633 -5.8122544 0.018292589
-2.7230639 -5.6411481 0.013721648
-2.701211 -5.4641595 0.011664337
-2.6909926 -5.2817807 0.012176206
-2.6622086 -5.1194715 0.008422778
-2.613857 -4.9760771 0.0002060422
-2.4274912 -4.9398599 -0.03910638
-2.2087078 -4.9217801 -0.085616119
-1.9564533 -4.9200821 -0.13952744
-1.8566729 -4.8057179 -0.15917017
-3.8797879 -5.9466572 0.26409164
-3.7460132 -5.8929138 0.23632623
-3.6457188 -5.7995801 0.21629322
-3.4591427 -5.7981315 0.17648065
-2.816767 -6.2591596 0.032517031
-2.7663298 -6.0935183 0.024197444
-2.7481606 -5.9006953 0.02316818
-2.7201955 -5.7225389 0.019833365
-2.7037666 -5.5386472 0.019045465
-2.6693187 -5.3752828 0.014107912
-2.6612468 -5.1935019 0.015075728
-2.6497765 -5.0192804 0.015206573
-2.5022402 -4.9548287 -0.015339131
-2.2919269 -4.9337549 -0.059930727
-2.0484543 -4.9296551 -0.11185343
-1.8435439 -4.8903155 -0.15502231
-1.8177837 -4.7250476 -0.15807422
-3.920243 -5.9684219 0.28116626
-3.7863586 -5.9161987 0.25338942
-3.679034 -5.8314881 0.23175997
-3.5060472 -5.8174009 0.1950794
-2.8270848 -6.3274341 0.042705294
-2.7471876 -6.1900644 0.027701983
-2.7336862 -5.9897676 0.027795762
-2.710767 -5.8044538 0.025658671
-2.6849787 -5.6268392 0.022796413
-2.6781702 -5.4370995 0.024162535
-2.6458511 -5.2743754 0.019687351
-2.6248007 -5.1059556 0.017701451
-2.5611942 -4.9750338 0.0060811038
-2.3591084 -4.9506907 -0.036659695
-2.14801 -4.926455 -0.081327721
-1.8955997 -4.9245596 -0.13514026
-1.8200948 -4.7934284 -0.14929686
-3.980911 -5.9584661 0.30238524
-3.8284054 -5.930871 0.27025789
-3.7014067 -5.869873 0.24406759
-3.5417676 -5.8427634 0.21040958
-2.9081216 -6.3158698 0.068176076
-2.7456086 -6.2652602 0.034252569
-2.7301223 -6.0646939 0.033928309
-2.7124653 -5.8723755 0.033021051
-2.6777704 -5.7014203 0.028159434
-2.6690779 -5.5113559 0.029132087
-2.6425741 -5.342072 0.025995106
-2.6199465 -5.1735644 0.023674427
-2.6088409 -4.9997501 0.023891788
-2.4382784 -4.9537463 -0.011818892
-2.2358441 -4.9267302 -0.054611873
-1.976494 -4.9341946 -0.11006568
-1.8119024 -4.8666415 -0.1441824
-1.7783877 -4.7073994 -0.14896409
-3.8584239 -5.9365649 0.28537172
-3.7315927 -5.877234 0.25913113
-3.6052766 -5.8151889 0.23304205
-3.4125135 -5.8230271 0.19168513
-2.7333512 -6.3325901 0.038713805
-2.7090156 -6.1389389 0.03642055
-2.6894236 -5.946394 0.035124093
-2.6673346 -5.7618394 0.033175085
-2.6423686 -5.5849833 0.030493628
-2.6215436 -5.4090362 0.028685471
-2.5973096 -5.2404652 0.026036665
-2.5769255 -5.0727115 0.024200445
-2.4752924 -4.9729147 0.003956656
-2.2889714 -4.9365592 -0.03536427
-2.0702245 -4.9183083 -0.081896059
-1.8260319 -4.9107513 -0.13403355
-1.7914925 -4.7522421 -0.13903874
-3.9202499 -5.9771471 0.30488288
-3.7869661 -5.9283361 0.27679494
-3.6667769 -5.8615952 0.25180486
-3.4618847 -5.888279 0.20710544
-2.7453473 -6.4610391 0.043631487
-2.6696312 -6.3174233 0.029398993
-2.666424 -6.1029706 0.031900104
-2.6404061 -5.9179363 0.029030966
-2.6044712 -5.7474074 0.023800202
-2.5943668 -5.5575466 0.024442669
-2.5666294 -5.3886194 0.020959822
-2.5352538 -5.2268033 0.016582813
-2.5303781 -5.0468564 0.018207526
-2.413769 -4.9597721 -0.0057149548
-2.2199087 -4.9296093 -0.047193605
-1.9854937 -4.9230757 -0.097796135
-1.757377 -4.903976 -0.14685127
-1.7229828 -4.7455988 -0.15193583
-3.8392432 -5.9416862 0.28771093
-3.718967 -5.8764753 0.26257092
-3.5538623 -5.8608336 0.22695126
-3.4806905 -5.7386236 0.21288987
-2.6596794 -6.4145908 0.024458785
-2.6254656 -6.0138941 0.023021216
-2.6086717 -5.822463 0.022238687
-2.5820625 -5.6457033 0.019103883
-2.5522559 -5.4763775 0.01516383
-2.5263402 -5.3077526 0.012058042
-2.5194256 -5.1273193 0.013256851
-2.4860594 -4.9729462 0.0083184512
-2.2848709 -4.9515076 -0.035066593
-2.0904238 -4.9184952 -0.076816969
-1.8233206 -4.9317026 -0.13504471
-1.7234563 -4.8192844 -0.15506029
-3.88151 -5.9550366 0.30012044
-3.7549908 -5.8989601 0.27337784
-3.635371 -5.8326893 0.24829045
-2.5992579 -6.3328338 0.014864638
-2.5888593 -6.1251445 0.015711816
-2.5836694 -5.9190779 0.017670782
-2.5620961 -5.7350245 0.015727039
-2.5376356 -5.5586905 0.013037391
-2.5173078 -5.3832712 0.011235883
-2.4785321 -5.2279592 0.0051094657
-2.4736531 -5.0480118 0.0067448225
-2.3570921 -4.9609365 -0.017367059
-2.1554792 -4.9367332 -0.060972147
-1.9289938 -4.9242649 -0.11017666
-1.6929418 -4.9108562 -0.16145515
-1.6747099 -4.7412858 -0.1628882
-3.9027901 -5.9671865 0.31377304
-3.7700865 -5.9203444 0.28543249
-3.6311631 -5.8781304 0.25566119
-2.5322902 -6.236536 0.0097674979
-2.5243628 -6.0295134 0.011136898
-2.4931426 -5.8514681 0.0069745239
-2.4733539 -5.6674967 0.0054019392
-2.4432611 -5.4977751 0.0013611426
-2.417062 -5.3287468 -0.0018379921
-2.4023006 -5.154202 -0.0024508797
-2.3685594 -4.999279 -0.0075122043
-2.1981964 -4.9531927 -0.04411573
-2.0038717 -4.920187 -0.086160481
-1.6890473 -4.9678636 -0.15579766
-3.9621105 -5.9694304 0.33175576
-3.8173368 -5.9397564 0.30046496
-3.6974247 -5.8762803 0.27512279
-2.5025001 -6.3542976 0.006134429
-2.4917536 -6.1462374 0.0068557495
-2.4720986 -5.9535642 0.0053968262
-2.4571369 -5.7621098 0.004948759
-2.439522 -5.578618 0.0038009742
-2.4040637 -5.415792 -0.0015628914
-2.3722708 -5.2534413 -0.0061320774
-2.3593471 -5.0791793 -0.0063862149
-2.2731931 -4.9670305 -0.023614528
-2.0793498 -4.9367237 -0.065660983
-1.8449869 -4.9300423 -0.11694296
-3.8571572 -5.9587264 0.31633627
-3.7308204 -5.9043159 0.28943852
-3.5155907 -5.9529343 0.2415306
-2.4967859 -6.9101934 0.0040302174
-2.4529049 -6.264009 0.0039222571
-2.437501 -6.0634418 0.0034993528
-2.4199271 -5.8711157 0.0024808527
-2.3997958 -5.6867509 0.00078365195
-2.3693569 -5.5166359 -0.0033815925
-2.3428226 -5.3472166 -0.0067009176
-2.3277302 -5.1722655 -0.0074287229
-2.3090134 -5.0046091 -0.0090586133
-2.1463132 -4.9523506 -0.043967642
-1.9441019 -4.9252024 -0.087914325
-3.8842363 -5.9692793 0.33669445
-3.7579658 -5.916431 0.30981258
-3.556298 -5.9521823 0.26511797
-2.4484785 -6.7892046 0.010211923
-2.4335692 -6.5708065 0.010137836
-2.4105906 -6.3682747 0.0080652172
-2.3718143 -6.1880193 0.0022067984
-2.3655467 -5.9808149 0.0038657845
-2.3500931 -5.7888532 0.0032898881
-2.3174126 -5.6181021 -0.0013692784
-2.2886553 -5.447989 -0.0051768399
-2.278826 -5.2658687 -0.0046625258
-2.2504191 -5.1038022 -0.0085096341
-2.1869853 -4.9728146 -0.020485437
-2.0008194 -4.9363909 -0.060735911
-1.6712276 -4.9994397 -0.13386874
-3.9353945 -5.9632998 0.35807467
-3.7789478 -5.9510965 0.32399115
-3.6152894 -5.9427619 0.28827009
-2.4123809 -6.9101663 0.010738642
-2.3879104 -6.6981578 0.0084646996
-2.3755493 -6.4802399 0.0089305136
-2.3480952 -6.2852039 0.0057572145
-2.3324099 -6.0842576 0.0052479561
-2.3074434 -5.8983746 0.0024881435
-2.2869251 -5.7134957 0.00068738358
-2.2634561 -5.5362902 -0.0018703034
-2.236665 -5.3664575 -0.0052625211
-2.2213211 -5.191103 -0.006066191
-2.1946831 -5.0292001 -0.0095379762
-2.0627313 -4.9522724 -0.037316307
-1.8369142 -4.9427476 -0.086635381
-3.9882057 -5.972115 0.37584928
-3.8140168 -5.9852185 0.33755073
-3.6689537 -5.9552941 0.30625457
-3.4161158 -6.0513172 0.24953064
-2.3528197 -7.0766363 0.0018511992
-2.3640549 -6.8188386 0.0080896514
-2.3486974 -6.5999579 0.0079404442
-2.3252745 -6.396944 0.0057953922
-2.3068929 -6.1951523 0.0047346717
-2.293494 -5.99471 0.0047472394
-2.2706802 -5.8092446 0.002479028
-2.237704 -5.6381021 -0.0022211128
-2.2086599 -5.4675908 -0.0060702055
-2.1985476 -5.2850742 -0.0055994955
-2.169867 -5.1225896 -0.009485323
-2.121614 -4.9790058 -0.017929966
-1.9510345 -4.9305201 -0.054540575
-3.8532112 -5.9706879 0.36312947
-3.7272229 -5.9194665 0.33635515
-3.4952757 -5.9958267 0.28458181
-2.3292496 -6.9167323 0.016484881
-2.2980585 -6.7119122 0.012649073
-2.2855015 -6.4937439 0.013079126
-2.2578402 -6.2984548 0.0098781893
-2.2349551 -6.104208 0.0077047194
-2.2239187 -5.9042892 0.0082032038
-2.1888461 -5.7326627 0.0030399552
-2.1797769 -5.5419321 0.0038361233
-2.1529088 -5.3719635 0.00044244595
-2.1374931 -5.196466 -0.00036973928
-2.1031022 -5.0405746 -0.0056098509
-1.9865071 -4.9512949 -0.029780254
-1.6818222 -5.0005207 -0.097056448
-3.901958 -5.979373 0.38138163
-3.745739 -5.9688373 0.34745014
-3.551384 -6.0008402 0.30457643
-2.2976365 -7.045588 0.015743004
-2.2765324 -6.825139 0.014352133
-2.261065 -6.6061387 0.014172829
-2.251179 -6.3887305 0.015188441
-2.2120924 -6.2080951 0.0092966594
-2.1984684 -6.0074039 0.0092558162
-2.1826072 -5.8149219 0.0086068921
-2.15681 -5.6370201 0.0055785491
-2.1425831 -5.4535141 0.005157961
-2.1176631 -5.2839866 0.0022005623
-2.088979 -5.121501 -0.0016812874
-2.0407209 -4.9779077 -0.010109625
-1.8387579 -4.9531837 -0.053824987
-3.9464817 -5.9876728 0.39949012
-3.7788074 -5.9947219 0.36280391
-3.5911865 -6.020906 0.32148805
-2.2579429 -7.1831889 0.013686385
-2.2596617 -6.9319177 0.017711816
-2.2481463 -6.7049141 0.018497406
-2.2289627 -6.4940667 0.017374733
-2.2082012 -6.2917013 0.015785092
-2.1784372 -6.1045275 0.012012597
-2.1745346 -5.8977919 0.014167888
-2.1395867 -5.7262888 0.0090359682
-2.1159406 -5.548821 0.0064566438
-2.103893 -5.3658581 0.0064913025
-2.088598 -5.1904988 0.0057042209
-2.0466433 -5.0408998 -0.0012723352
-1.9222643 -4.9576316 -0.02720188
-3.9680219 -5.9944434 0.41871548
-3.8009453 -6.0033917 0.38213935
-3.6807036 -5.9455614 0.35674301
-3.455837 -6.0164485 0.30666447
-2.2337456 -7.0231462 0.02553056
-2.2065196 -6.8104129 0.022653893
-2.2047811 -6.5771346 0.025635444
-2.1681614 -6.3887377 0.020359747
-2.1499789 -6.1870646 0.019298881
-2.1367826 -5.986742 0.019307327
-2.1141589 -5.8014011 0.017043335
-2.0886652 -5.623744 0.014041524
-2.0599155 -5.4534836 0.010223329
-2.0425799 -5.2775912 0.008977144
-2.0369484 -5.0965509 0.010360205
-1.9659828 -4.9717603 -0.0033247718
-1.6936557 -5.0006919 -0.063166849
-3.8753593 -5.9790726 0.40479967
-3.7257981 -5.9625516 0.37237623
-3.5080934 -6.027988 0.32390672
-2.2318356 -7.1218805 0.029635856
-2.2020683 -6.9086938 0.026166899
-2.1909842 -6.6820369 0.026970638
-2.1789887 -6.4643483 0.027447199
-2.14499 -6.2766147 0.0226929
-2.1225202 -6.0827336 0.02054351
-2.111897 -5.8831887 0.021063438
-2.0917001 -5.6985598 0.019279797
-2.061198 -5.5281563 0.015042856
-2.0495303 -5.3455911 0.015092446
-2.0270307 -5.1769242 0.012579198
-2.00069 -5.0152731 0.0091267135
-1.8144821 -4.98069 -0.031050745
-3.9295356 -5.9779019 0.42330965
-3.7567766 -5.9949751 0.38534012
-3.5457795 -6.0546341 0.33841428
-2.2097793 -7.2439466 0.029723207
-2.2092433 -6.9925494 0.033172756
-2.1825163 -6.7802801 0.030349266
-2.1678698 -6.5619931 0.030248826
-2.1451395 -6.3595686 0.028159099
-2.120487 -6.1653957 0.025534239
-2.1005738 -5.9723349 0.023928465
-2.0997224 -5.7669768 0.026662355
-2.0674896 -5.5965915 0.02204475
-2.0465872 -5.4203663 0.019986242
-2.0297899 -5.2451353 0.018810067
-2.0094328 -5.07723 0.016753983
-1.9078367 -4.9771986 -0.0040143803
-3.9349349 -6.0067644 0.43427062
-3.7741988 -6.0094609 0.39900634
-3.5941038 -6.0318546 0.35922214
-3.3996551 -6.0651603 0.31613654
-2.1075482 -7.4335523 0.01380513
-2.1728747 -7.0971179 0.032816939
-2.1435194 -6.8842578 0.029349558
-2.1328406 -6.6579576 0.030164329
-2.121243 -6.4406238 0.030652257
-2.0807419 -6.2603054 0.024287276
-2.058532 -6.0666604 0.022118649
-2.0695407 -5.8469086 0.027598042
-2.0354538 -5.6762872 0.022504918
-2.0126574 -5.4997139 0.019969929
-1.9865187 -5.3305168 0.016599566
-1.9869676 -5.1432323 0.019311361
-1.9227638 -5.0130334 0.0070497682
-1.6976178 -5.0084596 -0.042253785
-3.9776626 -6.0031624 0.44915393
-3.8235335 -5.9997392 0.41528422
-3.6741717 -5.9846864 0.38262486
-3.4815869 -6.0208774 0.33974528
-2.1465695 -7.2104177 0.029509142
-2.1273839 -6.981935 0.028440654
-2.100966 -6.7697577 0.025555698
-2.0866199 -6.5515838 0.025410816
-2.0641842 -6.3492632 0.023266282
-2.0467699 -6.1481991 0.022210546
-2.0343287 -5.9484901 0.022229606
-2.0124416 -5.7637739 0.019963058
-1.9949657 -5.580132 0.018652895
-1.9670318 -5.4106412 0.014845084
-1.9505038 -5.2355394 0.013625351
-1.9075254 -5.0864205 0.0062249713
-1.7826654 -5.004313 -0.020124163
-3.9877295 -6.0563307 0.45443234
-3.8904533 -5.9732018 0.43411562
-3.7186017 -5.9922276 0.39591992
-2.1154156 -7.3398829 0.023354745
-2.1184967 -7.0802646 0.027625335
-2.0894635 -6.8676314 0.024155533
-2.0724642 -6.6488671 0.023428157
-2.0542843 -6.4388423 0.022319896
-2.0276206 -6.2443824 0.01912233
-2.0057096 -6.050982 0.016961355
-1.9885067 -5.8587565 0.015824029
-1.9614894 -5.681179 0.012315837
-1.9459847 -5.4979134 0.011430108
-1.9198956 -5.3287144 0.0080133108
-1.7948048 -5.0604224 -0.015893478
-3.9521761 -6.1493988 0.45165792
-3.8872421 -6.017581 0.43907341
-2.0430694 -7.4992518 0.0094383257
-2.054903 -7.2228284 0.015875489
-2.0420084 -6.9866242 0.016271865
-2.0155609 -6.7743158 0.013330664
-2.0078888 -6.5487542 0.014739718
-1.9923735 -6.3393002 0.014185335
-1.9543203 -6.159348 0.008222824
-1.941732 -5.9593773 0.0081863021
-1.9268767 -5.7676406 0.007535018
-1.8144923 -5.6698976 -0.016057303
-1.7924829 -5.4920583 -0.018489642
-2.0361259 -7.3437018 0.012159218
-2.0264423 -7.0990448 0.013403196
-1.9971558 -6.8860469 0.0098506771
-1.9865507 -6.659616 0.010639407
-1.9817842 -6.4349627 0.012702376
-1.9414598 -6.2546115 0.0062449393
-1.9124174 -6.0678806 0.0023843118
-1.7880591 -5.7707829 -0.021128504
-1.7563683 -5.5987711 -0.025780013
-1.7211436 -5.4338474 -0.031314068
-2.0036175 -7.4735446 0.0092542283
-1.9906538 -7.2278504 0.0098176459
-1.9841908 -6.9840498 0.011802088
-1.9644228 -6.7643762 0.010487529
-1.9569771 -6.5389366 0.011995425
-1.9143572 -6.3580933 0.005053129
-1.8613528 -5.37921 0.0070186458
-1.8640455 -5.0062928 0.012863732
-1.9662118 -7.5886006 0.01400217
-1.9438604 -7.3497844 0.012396343
-1.9405686 -7.0974827 0.015218041
-1.9309642 -6.8622131 0.016398661
-1.9208639 -6.636127 0.017338429
-1.903057 -6.4262047 0.016339511
-1.8454572 -5.839623 0.01181048
-1.8333751 -5.6489196 0.011817132
-1.8332596 -5.4530578 0.014556305
-1.9460468 -7.4490175 0.020255877
-1.9462088 -7.188478 0.023938885
-1.9275497 -6.9601965 0.022992989
-1.9213963 -6.7261453 0.0249043
-1.8945129 -6.5230255 0.021782361
-1.7701979 -6.4278569 -0.0044794329
-1.8514642 -5.7096519 0.023628132
-1.9394544 -7.5487933 0.027691301
-1.9115208 -7.3181801 0.024719063
-1.9087814 -7.0663228 0.027631985
-1.899717 -6.8315182 0.028905783
-1.8834918 -6.6132092 0.028361969
-1.8457588 -6.4251862 0.022623947
-1.8381306 -5.7909369 0.029813934
-1.9154915 -7.65411 0.033275984
-1.8971548 -7.4075565 0.032669112
-1.8917054 -7.1551652 0.035001472
-1.8800771 -6.9198608 0.035726242
-1.8614347 -6.7011027 0.034667119
-1.8618245 -6.4693713 0.038006831
-1.8829955 -7.7926869 0.031664047
-1.8918794 -7.5063171 0.037645005
-1.8773181 -7.2609553 0.037853457
-1.8692757 -7.0174284 0.039481953
-1.8611548 -6.7833085 0.04096169
-1.8591545 -6.5511107 0.043772995
-1.8615091 -7.6036849 0.040533148
-1.8441387 -7.3577828 0.040109489
-1.8523209 -7.0908923 0.04565898
-1.8289533 -6.8714433 0.043534089
-1.8244137 -6.6386738 0.045780495
-1.7520677 -6.4874773 0.031816825
-1.869496 -7.7028413 0.042819034
-1.8677167 -7.4331832 0.04618999
-1.848201 -7.1964545 0.045150775
-1.8477288 -6.9463067 0.048540119
-1.8683376 -7.8101835 0.043140773
-1.875427 -7.5241776 0.048748467
-1.865606 -7.2716799 0.050111022
-1.8237116 -7.6624527 0.043817393
