# .PCD v0.7 - Point Cloud Data file format
VERSION 0.7
FIELDS x y z
SIZE 4 4 4
TYPE F F F
COUNT 1 1 1
WIDTH 399
HEIGHT 1
VIEWPOINT 0 0 0 1 0 0 0
POINTS 399
DATA ascii
1.7814485 3.1109707 0.48405516
1.8126255 3.1561227 0.48747656
1.7907397 3.0670066 0.49489158
2.1221716 3.4321237 0.41437915
1.9785043 3.4471822 0.45138058
1.8738754 3.4890497 0.47870135
1.8446174 3.0518913 0.49405974
1.698589 3.0562024 0.53174806
2.0251198 3.4252357 0.45209041
1.9362041 3.478889 0.47565821
1.7530835 3.0206125 0.52226132
1.7715299 3.1475027 0.51902795
2.0248363 3.4656665 0.4574675
1.9127471 3.4997275 0.48681208
1.7025253 3.0223119 0.53847587
1.9754001 3.3482034 0.47178742
1.9868883 3.4805055 0.47038397
1.7801476 2.9868913 0.53020519
1.7291703 3.059108 0.5442301
2.1066597 3.4731379 0.45135605
1.7526019 2.9243169 0.54933172
1.7493484 3.0308704 0.55133986
1.7360084 3.1320541 0.55589992
1.7822841 2.8968909 0.55660611
1.7561893 2.9847851 0.56429547
1.7819898 3.115474 0.55897534
2.0099006 3.0090172 0.51498747
1.9508704 3.0756407 0.53105909
1.8064882 3.0736868 0.56861591
2.1473706 3.4681816 0.48407504
1.9049906 2.9629455 0.54725778
1.9393966 3.0997331 0.53973085
1.9855758 3.2510166 0.52928525
2.1254277 3.48715 0.49531162
1.8878678 2.880595 0.5534904
1.8154776 2.9321494 0.57293737
1.9188044 3.122823 0.54793775
2.0168188 3.3180611 0.52437407
2.0944865 3.5049393 0.50603509
1.9413487 2.932219 0.5510233
2.1074369 3.1711845 0.51000893
2.0458143 3.2374406 0.5268178
1.9756759 3.2961025 0.54577851
2.0041142 2.9017777 0.53913337
1.9469675 2.9658983 0.55477679
2.0651453 3.1695814 0.52585262
2.0490408 3.2720039 0.53111851
1.9561319 3.3108811 0.55588323
1.9758092 2.9126799 0.55166221
2.065089 3.0906608 0.52997297
2.1038198 3.2355754 0.52122819
2.0712585 3.3258965 0.53065979
2.0516553 3.4289234 0.53681445
1.9576062 2.9112513 0.56613368
2.1150355 3.1442099 0.52688539
2.2430208 3.3648973 0.49526405
1.9845017 3.2653236 0.56233853
1.9723995 2.8529847 0.56492722
1.9469587 2.9388549 0.5723899
2.285233 3.3214295 0.48673481
2.2211933 3.3883939 0.50418925
1.8971001 3.2281847 0.58809257
1.9407469 2.8563797 0.57893491
2.0224996 3.0268872 0.55887443
2.3340163 3.3948987 0.47994334
2.1868467 3.3918781 0.51873291
1.8941069 3.2542372 0.59473956
1.8633 2.7100341 0.60779494
1.9560938 2.8831694 0.58476502
2.1811559 3.1716661 0.52777773
2.3900359 3.4627581 0.47508571
2.1831193 3.4075058 0.52927136
1.9979093 2.7347543 0.57967699
1.8503586 2.7233782 0.61858946
1.9420176 2.8968995 0.59582192
2.3616288 3.3493292 0.48869428
2.3866873 3.4921937 0.48327073
1.9451965 3.2265286 0.59775674
1.9346749 2.7196579 0.60060358
1.8266115 2.7360559 0.6293335
2.2293892 3.1631484 0.52630836
2.4534659 3.4666138 0.4695341
1.9185095 3.2383847 0.60918772
2.1300042 2.7727792 0.56232131
1.9118184 2.708802 0.61957353
1.8580275 2.7660093 0.63428998
2.2043564 3.1528814 0.54576039
2.5162139 3.5338352 0.4663057
2.0368252 2.7282908 0.59342742
1.9518201 2.7631426 0.61625367
1.9353218 2.8512862 0.62135375
2.4654682 3.4000061 0.48529038
2.0626481 2.6772876 0.59184337
2.0559058 2.7721028 0.5943749
1.9396478 2.7820916 0.62527734
2.1268902 3.038198 0.57763487
2.4706631 3.4420173 0.48964244
2.0064328 2.6438968 0.6176194
2.1468318 2.8516016 0.58186257
2.0449741 2.8740344 0.60905546
2.1539574 3.0700793 0.58154827
2.531527 3.508971 0.4845078
2.0762062 2.629035 0.60367578
2.1402795 2.7763155 0.58764684
2.1467297 2.8840191 0.58664823
2.0597832 2.9180241 0.6099422
2.4803853 3.382647 0.50139785
2.0784829 2.6548147 0.61019409
2.1183217 2.7844369 0.60044122
2.1319675 2.8978064 0.59753823
2.0751948 2.9558165 0.61298418
2.4918771 3.4242465 0.50529087
2.1762419 2.7577846 0.59127522
2.0909133 2.7919862 0.61414474
2.073674 2.8800068 0.61925983
2.091857 3.0000558 0.61516476
2.5116727 3.4789503 0.50660068
2.055949 2.5773106 0.63393879
2.1356871 2.7352047 0.61368829
2.1501272 2.8474548 0.61052668
2.0716028 2.8855052 0.63163841
2.5487578 3.4037697 0.50787038
2.1075623 2.5515087 0.62476039
2.0563316 2.6076779 0.63873339
2.06566 2.7114804 0.63687468
2.1558025 2.8848741 0.6139251
2.0619202 2.9096389 0.63905859
2.5053871 3.4060135 0.52400649
2.09918 2.5527499 0.63938022
2.2488773 2.7642117 0.60074115
2.0874565 2.7355711 0.64356697
2.1837745 2.9159076 0.61896151
2.5492558 3.3383124 0.52406687
2.4778779 3.3942056 0.54340106
2.0976632 2.5769393 0.64612889
2.2764461 2.8139241 0.59983861
2.0620041 2.740706 0.65658647
2.149821 2.9149845 0.63418275
2.5933039 3.4113533 0.51880777
2.5280952 3.474025 0.5365507
2.1623762 2.5579636 0.635975
2.0879052 2.5950832 0.65603077
2.1047246 2.7041483 0.65215969
2.0963073 2.7957165 0.65491784
2.1970072 2.9841638 0.62913585
2.5844822 3.4393709 0.52841634
2.156857 2.5583565 0.65324384
2.1133344 2.6184428 0.66518283
2.0915229 2.6964056 0.67143947
2.2323782 2.9142232 0.63516837
2.2417228 3.0275376 0.63332653
2.5382488 3.4069631 0.5565083
2.2389967 2.5572391 0.63746142
2.1258748 2.5643024 0.66760528
2.0593302 2.6049888 0.68554097
2.1127691 2.7446799 0.67209339
2.5092387 3.4202926 0.57030928
2.2454915 2.5940497 0.65730786
2.1555941 2.616987 0.68135685
2.0734737 2.6437552 0.70335764
2.1397464 2.7968266 0.68655002
2.6264324 3.4533668 0.56057245
2.2267241 2.510129 0.66920429
2.2223883 2.59953 0.67082572
2.1023982 2.5962291 0.70273876
2.1478634 2.7292228 0.69133466
2.7271399 3.3383231 0.54035443
2.6196208 3.359853 0.56907457
2.5910592 3.4527779 0.57715446
2.2037125 2.5216899 0.68026733
2.1760275 2.5921803 0.68798083
2.1168563 2.6372778 0.70394784
2.2054522 2.809473 0.68121588
2.6910079 3.3461268 0.55463701
2.6556876 3.433023 0.56445938
2.6043949 3.5060267 0.5784604
2.2195961 2.5507686 0.68559253
2.2746921 2.6894143 0.671606
2.1318605 2.6655788 0.70951533
2.2853088 2.8969436 0.66979671
2.6348765 3.3199546 0.5787943
2.6427119 3.4458628 0.5773192
2.5982277 3.5248907 0.58954495
2.2278328 2.5671654 0.69313926
2.2518938 2.6808748 0.68722093
2.1544166 2.6934941 0.71324456
2.7881937 3.3586295 0.54727232
2.6951423 3.3923423 0.57219917
2.6091926 3.4305298 0.59525537
2.6136286 3.5568523 0.59461057
2.2401574 2.5081239 0.696446
2.2504947 2.6084881 0.69409025
2.1975744 2.754143 0.70876223
2.7670918 3.3726637 0.55949318
2.6526361 3.3848972 0.59002602
2.6302216 3.4834213 0.59638178
2.2794399 2.5432281 0.69785702
2.2784116 2.8285654 0.69918424
2.8130898 3.4263747 0.55874014
2.6345282 3.3766646 0.60619134
2.6677277 3.5297277 0.59788918
2.2198732 2.522058 0.71741033
2.869091 3.2800622 0.54661757
2.7988167 3.3335485 0.56556994
2.7778354 3.4327199 0.57151461
2.6001258 3.3808863 0.61880243
2.8906057 3.2470748 0.55293268
2.8281572 3.3065171 0.56987512
2.8219106 3.4186637 0.57195216
2.630425 3.3528347 0.62300915
2.6977518 3.5401783 0.60564739
2.8348153 3.2078717 0.5809896
2.8738003 3.3588588 0.57109416
2.7671881 3.3759806 0.59973526
2.6750338 3.4041669 0.62453949
2.899122 3.1882474 0.57000953
2.8159211 3.2266548 0.59244394
2.8467097 3.370981 0.58471787
2.7402854 3.3867567 0.61329389
2.6827521 3.4487269 0.62893432
2.9575396 3.246408 0.56964839
2.8519969 3.2645557 0.59798729
2.8673074 3.3956559 0.59435517
2.7678294 3.4172902 0.62108165
2.6755557 3.4434381 0.64589614
2.8733013 3.2291429 0.60734051
2.8963213 3.3663971 0.60164803
2.7973158 3.3875678 0.62822866
2.8082573 3.5191329 0.62574923
2.6542749 3.4797583 0.66683972
3.021102 3.2543223 0.58227175
2.9086483 3.2644987 0.61240393
2.867249 3.3402705 0.62373787
2.8174381 3.4085388 0.63730079
2.7731459 3.483134 0.64940292
3.0005033 3.2714043 0.5930987
2.9306872 3.3211424 0.61192942
2.8463345 3.3555031 0.63460493
2.6841063 3.4253178 0.6782223
2.9492218 3.2476265 0.61517286
2.9222085 3.3368957 0.62268513
2.689096 3.4526596 0.68544358
2.9929686 2.569484 0.61357397
2.9816608 3.1750109 0.61837119
2.878026 3.1890244 0.64614111
2.872663 3.2971659 0.64789015
2.7280793 3.5019743 0.68716955
2.8865612 2.5110066 0.64977318
2.9512806 3.1715469 0.63431078
2.8973527 3.2319999 0.64891207
2.8631685 3.3124123 0.65828347
2.7241435 3.5225439 0.69607419
3.1342223 2.6327062 0.58968556
2.8958273 2.5464358 0.65324605
2.9116979 3.1675754 0.65072465
2.878762 3.2476661 0.65976083
2.7498946 3.4645071 0.69484949
2.7170174 3.5504849 0.70388323
3.129427 2.6339343 0.60568148
2.946099 2.5872343 0.65463871
3.0090723 3.1500013 0.63949484
2.8780744 3.1346483 0.6745342
2.7640221 3.4771194 0.70612925
2.7371109 3.5700243 0.71361923
3.2336321 2.6688049 0.59292078
3.0497081 2.6229403 0.64206374
3.0656953 2.7323687 0.63814574
2.876996 2.6721923 0.68852252
2.8609815 2.754792 0.6930939
2.9230292 2.9101865 0.67698145
2.8878 2.9811707 0.68666148
2.858186 3.0586061 0.69485849
2.788779 3.4397607 0.71473271
2.7496367 3.5171583 0.72548234
3.3875871 2.6951621 0.56602824
3.2255483 2.6703146 0.60939771
3.0425639 2.6220784 0.65829998
3.0355842 2.7121632 0.6605075
2.8557196 2.6555932 0.70854598
2.9715321 2.8546917 0.67821634
2.9806297 2.9654443 0.67618531
2.9301956 3.0230236 0.68992645
2.8648353 3.0658407 0.70761573
2.8067906 3.4596901 0.72462857
2.779901 3.5516517 0.73217744
3.3630424 2.7096605 0.57925683
3.1937873 2.6768878 0.62449425
3.1026328 2.7008078 0.64900959
3.0640824 2.7665896 0.65957499
2.8399827 2.6701384 0.71928531
2.8486154 2.9757311 0.71806991
2.8187535 3.0514841 0.72634465
2.77949 3.4642978 0.73833632
3.2933626 2.5834248 0.60678148
3.3422644 2.7176039 0.59417957
3.1508517 2.6643713 0.64527786
3.1130533 2.73036 0.65565825
3.0443199 2.7702003 0.67422891
2.9240127 2.762655 0.70644617
2.8920135 3.0375867 0.71605057
2.8404133 3.092562 0.73008561
3.2534928 2.5794735 0.62646878
3.25564 2.6769061 0.62623352
3.1492884 2.6884413 0.65472525
3.1558402 2.7919416 0.6533317
3.0124028 2.7671628 0.69162118
2.9071538 2.771064 0.71979344
2.8666739 3.0375621 0.73154157
3.4430294 2.6372969 0.59392798
3.2896478 2.6170197 0.6347537
3.2373834 2.6717038 0.64887649
3.1918416 2.7315669 0.66122335
3.1898768 2.828999 0.66207963
3.0684936 2.8226271 0.69442505
2.9339256 2.7994254 0.73022878
2.8911886 3.065537 0.74252576
3.3725557 2.616909 0.62151372
3.4971147 2.8121629 0.58902454
3.2139146 2.6841133 0.66392136
3.2055697 2.7748125 0.6664378
3.1656468 2.8401456 0.67726576
2.9865017 2.7794526 0.72471523
2.9040227 3.004411 0.74737805
3.4168205 2.5638807 0.62677926
3.365319 2.6196196 0.6406166
3.4046504 2.7478704 0.63058019
3.1920323 2.6714008 0.68675166
3.2579043 2.8251233 0.66975307
3.2170799 2.8904731 0.68078804
2.9045687 3.0044501 0.76405495
3.4024115 2.5129697 0.64650971
3.4601426 2.6513834 0.63161737
3.6058397 2.8662419 0.593633
3.2481334 2.6731231 0.68786627
3.1505897 2.6858952 0.71375495
3.1560371 2.7875507 0.7126087
2.9399672 2.9849076 0.77044946
2.8959255 3.0440888 0.7822957
3.450655 2.5563357 0.64771199
3.4993322 2.6894815 0.63519371
3.4231777 2.7258337 0.65549368
3.2122447 2.6460974 0.71119767
3.1598272 2.6956236 0.72524416
3.1937993 2.8233545 0.71660566
2.9553401 2.9978578 0.78035361
2.9177473 3.0636227 0.79051518
3.5126331 2.6350296 0.63654405
3.5745804 2.782002 0.6205219
3.4066737 2.7437203 0.66495025
3.1891911 2.6553755 0.7223928
3.2317188 2.7890816 0.7114833
3.1698158 2.8316615 0.72802114
2.9311364 3.0024619 0.79180968
3.559684 2.5984662 0.63221318
3.4923832 2.6415474 0.6502139
3.4550054 2.7078264 0.66033977
3.3266952 2.6974254 0.69438177
3.1776564 2.6637948 0.73385954
3.1831694 2.7644372 0.73269922
2.925904 3.0134625 0.80177885
3.6239264 2.6600263 0.62715614
3.4946311 2.6540596 0.66147524
3.4343681 2.7007442 0.67761189
3.2622201 2.6498864 0.72319049
3.202491 2.6918352 0.73917335
3.1782799 2.765816 0.74580938
2.9342096 3.024574 0.81136066
3.8122141 2.7301559 0.58584642
3.6043177 2.6669993 0.64089561
3.5058084 2.6841488 0.66710633
3.415236 2.7048995 0.69121885
3.2513189 2.6584184 0.73463613
3.21332 2.71926 0.74489176
3.701225 2.6786041 0.62039411
3.647923 2.7344568 0.63468903
3.4432428 2.6636405 0.68886626
3.2272351 2.6661963 0.74624127
3.2322402 2.7663577 0.74516547
3.7868807 2.6539369 0.61160272
3.6417568 2.6375356 0.65011013
3.5664787 2.6726162 0.67018306
3.4536834 2.6740532 0.7001462
3.2600758 2.6936793 0.75161618
3.5885127 2.6191611 0.67150843
3.5213668 2.6587291 0.68945038
3.2676721 2.7209444 0.75704402
3.7827556 2.699079 0.62885469
3.6382387 2.6796165 0.66721749
3.413269 2.5859668 0.72680897
3.2589803 2.6349068 0.76791638
3.2926824 2.7609069 0.75922561
3.707648 2.6495919 0.66063732
3.6474862 2.6961269 0.67672813
3.2694182 2.6472366 0.77715373
3.2952452 2.7664695 0.7705307
3.6793334 2.6541114 0.67378718
3.2498615 2.6524701 0.78795475
3.5899189 2.6016457 0.70445722
3.2444568 2.6641564 0.79650313
