# .PCD v0.7 - Point Cloud Data file format
VERSION 0.7
FIELDS x y z
SIZE 4 4 4
TYPE F F F
COUNT 1 1 1
WIDTH 251
HEIGHT 1
VIEWPOINT 0 0 0 1 0 0 0
POINTS 251
DATA ascii
-2.3830178 -10.998939 0.51651067
-2.3399403 -10.97152 0.52295887
-2.3819985 -11.003613 0.54152316
-2.5221736 -11.065108 0.57804334
-2.5778008 -11.076323 0.59631181
-2.3841672 -11.037006 0.55189824
-2.4509225 -11.058109 0.57296395
-2.5239663 -11.087128 0.59479761
-2.564028 -11.115606 0.61932456
-2.3699877 -11.078026 0.57460874
-2.7060575 -11.139995 0.66909027
-2.5014014 -11.144505 0.6212163
-2.755013 -11.136477 0.69673002
-2.5457971 -11.162238 0.647497
-2.9005179 -11.165221 0.74435771
-2.6896811 -11.204493 0.69458598
-2.4843447 -11.21065 0.64666337
-2.7447236 -11.199569 0.7205345
-2.5350223 -11.226996 0.67123687
-2.8138204 -11.194146 0.74538803
-2.5953789 -11.262311 0.69334787
-2.877656 -11.225549 0.76595587
-2.668787 -11.256721 0.71681905
-2.463017 -11.264473 0.668805
-2.930114 -11.197917 0.79133683
-2.7157154 -11.260264 0.74035418
-2.5032332 -11.29893 0.69022369
-3.0575163 -11.247282 0.83286196
-2.8481741 -11.293783 0.78321522
-2.6365664 -11.336172 0.73311132
-2.4347262 -11.325968 0.68618804
-3.1008909 -11.265887 0.85428119
-2.8959177 -11.294646 0.80580741
-2.6893125 -11.319461 0.75701618
-2.4719007 -11.379104 0.70509994
-3.3625059 -11.318471 0.92008829
-3.1722503 -11.274042 0.87614465
-2.963959 -11.32424 0.82636333
-2.76159 -11.331317 0.77870119
-2.5449128 -11.392916 0.72675455
-3.4184542 -11.373725 0.94047141
-3.2288091 -11.321026 0.8967151
-3.02408 -11.353349 0.84797847
-2.8235934 -11.352409 0.80080026
-2.6095917 -11.40619 0.74951947
-3.469656 -11.398201 0.96321803
-3.2810023 -11.337283 0.91966271
-3.0783093 -11.361581 0.8713783
-2.8761199 -11.372243 0.82343769
-2.6688013 -11.39862 0.77402586
-2.450968 -11.459897 0.72154939
-3.5299611 -11.432416 0.98585641
-3.3390408 -11.38301 0.94154209
-3.142719 -11.369643 0.89535415
-2.9354062 -11.411587 0.84565347
-2.7320137 -11.420188 0.79743135
-2.5126245 -11.493156 0.74436051
-3.6046257 -11.445559 1.0098733
-3.4119105 -11.407742 0.96486962
-3.2153223 -11.396093 0.91852206
-3.0064781 -11.449686 0.86820501
-2.8085437 -11.430634 0.82165807
-2.5899539 -11.505589 0.76868117
-3.6515791 -11.448408 1.0374373
-3.456121 -11.432171 0.99139899
-3.2593038 -11.422288 0.94493663
-3.0606899 -11.418666 0.89794713
-2.8525696 -11.46047 0.84797561
-2.6503611 -11.459128 0.80009753
-3.5942538 -11.448459 1.0409487
-3.3948591 -11.461939 0.99346465
-3.1975446 -11.451988 0.94684529
-2.9885395 -11.507376 0.89641631
-2.7916343 -11.480193 0.85016835
-2.5772011 -11.537483 0.79842132
-3.6422591 -11.460405 1.0646973
-3.4429932 -11.475677 1.017146
-3.2456098 -11.467496 0.97041154
-3.0449166 -11.475451 0.92263591
-2.8399718 -11.499351 0.87359685
-2.6355402 -11.509573 0.82489556
-3.7122052 -11.491775 1.0832075
-3.516206 -11.479023 1.0367643
-3.3163366 -11.492445 0.98897892
-3.1155837 -11.502172 0.94104105
-2.9107196 -11.527885 0.89186692
-2.709878 -11.520277 0.84418476
-3.756022 -11.542361 1.1013677
-3.56459 -11.48162 1.0566709
-3.3638372 -11.506771 1.0083417
-3.1660213 -11.498528 0.96125901
-2.9586465 -11.545856 0.91098386
-2.7612584 -11.520388 0.86428517
-2.5489795 -11.569745 0.81280285
-3.8928168 -11.651019 1.1368469
-3.7051189 -11.523925 1.0939956
-3.5087838 -11.512912 1.0470985
-3.3063574 -11.54793 0.99796009
-3.1079168 -11.539601 0.95051259
-2.9030571 -11.567114 0.90091664
-2.7002025 -11.571102 0.85219991
-3.9445031 -11.729416 1.1566939
-3.7577102 -11.564121 1.1146139
-3.5656219 -11.505156 1.0694369
-3.3615844 -11.561941 1.0194
-3.1630864 -11.555452 0.97177893
-2.9614301 -11.565109 0.92312157
-2.7556779 -11.590733 0.8732031
-3.8272078 -11.623017 1.1352737
-3.6373534 -11.525927 1.0911988
-3.4389658 -11.534886 1.0432357
-3.2374969 -11.56005 0.99425071
-3.0389419 -11.551804 0.94654292
-2.8293195 -11.608985 0.89504009
-2.6292953 -11.593287 0.84710562
-3.9664061 -11.738226 1.1777472
-3.7753673 -11.614597 1.1337245
-3.585675 -11.517598 1.089561
-3.3801754 -11.59621 1.0385073
-3.1801684 -11.6015 0.99006289
-2.9795876 -11.603129 0.94154269
-2.7722907 -11.640528 0.89077294
-3.8237643 -11.662783 1.1546245
-3.6341457 -11.54754 1.1107517
-3.4347606 -11.568319 1.0621105
-3.2309842 -11.615215 1.0119431
-3.0304306 -11.618676 0.96332425
-2.8234775 -11.657971 0.91252047
-2.62286 -11.644096 0.86419052
-3.9000609 -11.699535 1.17758
-3.7096961 -11.576005 1.1336095
-3.5145628 -11.548796 1.0867811
-3.3096526 -11.617466 1.0358872
-3.1093431 -11.622766 0.98722881
-2.9029403 -11.663963 0.93645734
-2.697772 -11.681526 0.88640279
-3.9421105 -11.785444 1.1999074
-3.7499783 -11.653576 1.1555775
-3.5589721 -11.558299 1.110875
-3.3556349 -11.618876 1.0604256
-3.1544418 -11.63593 1.0112647
-2.9484196 -11.67899 0.96047109
-2.7405045 -11.718163 0.9092871
-3.8253617 -11.680043 1.1785408
-3.6338801 -11.576478 1.1338214
-3.4343383 -11.599038 1.084916
-3.2306306 -11.647751 1.0345358
-3.0261474 -11.682733 0.9842068
-2.8159385 -11.743569 0.93203026
-3.8829789 -11.77542 1.1989928
-3.6935575 -11.603618 1.1559192
-3.4979143 -11.57809 1.1087421
-3.2923386 -11.658477 1.0572712
-3.0893707 -11.685327 1.0073823
-2.8786402 -11.757934 0.95479345
-3.9283109 -11.890146 1.2184722
-3.7382798 -11.66999 1.1760961
-3.5456371 -11.586286 1.1306492
-3.3433414 -11.638604 1.0804214
-3.1389902 -11.687147 1.0297589
-2.927798 -11.771525 0.97678918
-3.8078237 -11.715615 1.1964232
-3.6144993 -11.623588 1.1508936
-3.4177561 -11.607908 1.1031537
-3.211669 -11.688148 1.0514057
-3.0002842 -11.784326 0.99807763
-3.8778911 -11.840428 1.2143303
-3.6876774 -11.640211 1.1714803
-3.4934323 -11.586379 1.1249806
-3.2867272 -11.688391 1.0725961
-3.0804734 -11.746706 1.0211179
-3.731602 -11.686129 1.1909741
-3.5381947 -11.604033 1.1451488
-3.3362296 -11.658029 1.0947157
-3.1292846 -11.738105 1.0425816
-3.7928278 -11.740867 1.2135525
-3.5984647 -11.650454 1.1676143
-3.4034374 -11.606507 1.1206551
-3.1955717 -11.718366 1.0676687
-3.8641865 -11.924506 1.2348748
-3.6743207 -11.655969 1.1932471
-3.4802194 -11.59382 1.1467977
-3.2752695 -11.687645 1.094826
-3.0668924 -11.777585 1.0420846
-3.7453496 -11.680664 1.2184169
-3.5509052 -11.610259 1.172001
-3.3501253 -11.656074 1.1219137
-3.1422741 -11.757896 1.0690709
-3.7935793 -11.734104 1.2446455
-3.5981941 -11.655403 1.1980361
-3.4028208 -11.613184 1.1507771
-3.1950917 -11.736844 1.0975125
-3.8506894 -11.927133 1.2649786
-3.6586714 -11.660274 1.2224658
-3.4641252 -11.599842 1.175645
-3.2600136 -11.695478 1.123683
-3.7120671 -11.694462 1.2451711
-3.5174122 -11.61578 1.198565
-3.3170905 -11.663366 1.1483002
-3.781352 -11.717587 1.2694093
-3.5850153 -11.660624 1.2219082
-3.3888719 -11.63013 1.1739801
-3.8546479 -11.939736 1.2903451
-3.6601875 -11.674603 1.2469538
-3.4658802 -11.595952 1.2002881
-3.7060974 -11.687237 1.2753769
-3.5110195 -11.610322 1.2283639
-3.7717888 -11.709332 1.3000275
-3.5751812 -11.654124 1.2522188
-3.8312659 -11.920743 1.3171101
-3.6348674 -11.667277 1.2727972
-3.6899657 -11.689602 1.2962413
-3.0890038 -11.792665 1.1450187
-3.7655649 -11.710907 1.3185614
-3.1693254 -11.729397 1.1698415
-3.8292844 -11.941315 1.339673
-3.2344837 -11.695224 1.1956536
-3.2885566 -11.660119 1.2218193
-3.0831144 -11.799129 1.1680322
-3.3582745 -11.633787 1.2498075
-3.157403 -11.714757 1.1981037
-3.477843 -11.598073 1.3059638
-3.279942 -11.652648 1.2553687
-3.0725591 -11.863364 1.19979
-3.5433362 -11.619292 1.3317852
-3.3469107 -11.615664 1.2825105
-3.145901 -11.728371 1.2301593
-3.617696 -11.649559 1.3577768
-3.4214501 -11.597698 1.3093125
-3.2223735 -11.692232 1.2577386
-3.4917605 -11.598969 1.3352752
-3.2947676 -11.635318 1.2851827
-3.0875366 -11.897836 1.228835
-3.5406518 -11.618718 1.3648044
-3.3441894 -11.616828 1.3154238
-3.1443968 -11.721323 1.2635251
-3.40781 -11.607714 1.3433499
-3.2100403 -11.674019 1.2924908
-3.4585934 -11.598168 1.3692818
-3.2618194 -11.646252 1.318903
-3.0563064 -11.920588 1.2628356
-3.3313594 -11.607678 1.3451238
-3.1325085 -11.723957 1.2931012
-3.3987474 -11.608215 1.3709035
-3.2015688 -11.676316 1.3199868
-3.2610099 -11.628104 1.3474271
-3.0572274 -11.95436 1.2908609
-3.3289082 -11.598592 1.3744349
-3.1314361 -11.70676 1.3227375
-3.2086353 -11.668056 1.3521909
-3.2551332 -11.618268 1.3835689
