# .PCD v0.7 - Point Cloud Data file format
VERSION 0.7
FIELDS x y z
SIZE 4 4 4
TYPE F F F
COUNT 1 1 1
WIDTH 72
HEIGHT 1
VIEWPOINT 0 0 0 1 0 0 0
POINTS 72
DATA ascii
-0.99112779 -5.7765036 -0.17719592
-1.039047 -6.2477598 -0.16425861
-1.0147305 -6.0518236 -0.16690861
-0.97991669 -5.8696609 -0.17208296
-0.97206926 -5.6694965 -0.17101769
-1.003305 -6.1394806 -0.1602249
-0.96646649 -5.9570947 -0.16584124
-0.94129843 -5.7690253 -0.16879034
-0.98105985 -6.2244892 -0.15373249
-0.94228172 -6.0418911 -0.15976046
-0.91513944 -5.8534918 -0.16312826
-0.899912 -5.6598043 -0.1637795
-0.93358892 -6.1286621 -0.15551172
-0.90448081 -5.9399748 -0.1593208
-0.88726062 -5.7458835 -0.16041785
-0.875462 -6.0183082 -0.15644863
-0.83372051 -5.8429728 -0.16327457
-0.82638115 -5.6432109 -0.16211185
-0.84853345 -5.9168434 -0.15963735
-0.8089897 -5.7419615 -0.1660029
-0.82874298 -6.0166297 -0.16367726
-0.7945379 -5.8349562 -0.16875379
-0.77967471 -5.6415277 -0.16934785
-0.76553327 -5.9219494 -0.16866976
-0.73348397 -5.7406564 -0.17329848
-0.75397539 -6.0100269 -0.16741838
-0.71996266 -5.828486 -0.17248493
-0.69001281 -5.6475987 -0.17664827
-0.69786721 -5.9352221 -0.1759983
-0.68080413 -5.7411208 -0.17706326
-0.6884169 -6.0231175 -0.17265458
-0.69180351 -5.8096247 -0.16881
-0.63159418 -5.6539402 -0.18007588
-0.62922096 -5.9286003 -0.17516582
-0.58948958 -5.7534285 -0.18149759
-0.61833358 -6.0094171 -0.17090531
-0.59943104 -5.8151932 -0.17220667
-0.55446941 -5.6469622 -0.17975475
-0.57827818 -5.9026451 -0.17118961
-0.51625097 -5.7467966 -0.1826966
-0.53674811 -6.0232124 -0.17923658
-0.49504331 -5.8477216 -0.18582357
-0.49536812 -5.6416311 -0.18246877
-0.48798174 -6.0185046 -0.1804008
-0.45388156 -5.8368225 -0.18511887
-0.45438096 -5.6310062 -0.18164752
-0.43306786 -5.9181261 -0.18184717
-0.41632244 -5.7244244 -0.18243374
-0.4343065 -6.0060472 -0.18039504
-0.40043345 -5.8246217 -0.18505487
-0.39351434 -5.6252742 -0.18332788
-0.39475432 -5.9061394 -0.18063483
-0.37819153 -5.7127156 -0.18116727
-0.35720137 -6.0079846 -0.1813775
-0.33076748 -5.8202367 -0.18427135
-0.3086029 -5.6334186 -0.18621388
-0.31316546 -5.9145622 -0.18284346
-0.31165969 -5.7084723 -0.17982456
-0.28457347 -6.0034237 -0.18022072
-0.25825059 -5.8158135 -0.18313865
-0.23619534 -5.6291399 -0.18510219
-0.24092562 -5.9160409 -0.18494776
-0.23940125 -5.7099471 -0.18192993
-0.23636685 -6.003324 -0.18288366
-0.21001546 -5.8157058 -0.18577741
-0.19556442 -5.6228251 -0.18587798
-0.15849754 -5.9221311 -0.18944816
-0.14170536 -5.7284355 -0.19008197
-0.11412257 -5.8284698 -0.19117656
-0.084271066 -5.647707 -0.19502075
-0.083101869 -5.9403024 -0.19497614
-0.058462802 -5.752459 -0.19753113
