# .PCD v0.7 - Point Cloud Data file format
VERSION 0.7
FIELDS x y z
SIZE 4 4 4
TYPE F F F
COUNT 1 1 1
WIDTH 204
HEIGHT 1
VIEWPOINT 0 0 0 1 0 0 0
POINTS 204
DATA ascii
-1.7704855 3.2937284 0.4990859
-1.8092937 3.2327294 0.51962835
-1.7900088 3.2752161 0.5258382
-1.7736952 3.2067478 0.52725989
-1.9474623 3.1986639 0.56699705
-1.8877268 3.0760186 0.56644017
-1.734831 3.305259 0.53526479
-1.968762 2.9420321 0.58932012
-1.7645096 3.2023053 0.54683232
-1.9451653 3.1854892 0.5882113
-1.9609134 2.9855731 0.59403664
-1.7669746 3.2419364 0.55381995
-1.9324443 2.9141867 0.59841388
-1.7516919 3.1563845 0.56097305
-1.7901275 3.2453761 0.57145613
-1.9613482 2.9336116 0.61039567
-1.77446 3.1828477 0.57166672
-1.9305788 3.1810124 0.60774046
-1.9297445 2.8794014 0.61015391
-1.9393427 2.9814804 0.61423266
-1.8254369 3.1791511 0.59146792
-1.9940451 2.8505833 0.63582593
-1.8135303 3.0918517 0.59836686
-1.8587377 3.1721244 0.61027002
-1.924114 2.9314346 0.62852448
-1.7621748 3.1635108 0.59512752
-1.8940804 3.1773787 0.62588251
-1.8428483 2.9354639 0.62840569
-1.7438383 3.1201422 0.60865003
-1.843978 3.1573961 0.63242251
-1.8522108 3.2665308 0.63617241
-1.8442206 2.8938806 0.64203346
-1.8231425 3.018239 0.63926238
-1.8050977 3.1441963 0.63721842
-1.8054485 3.2592773 0.63924307
-1.8065964 2.8286173 0.64399683
-1.8076997 2.9344897 0.64606857
-1.756505 3.0831687 0.63675886
-1.8402765 3.1301503 0.65697259
-1.795109 3.2817848 0.64910817
-1.8092457 2.8921351 0.65734154
-1.8198096 2.9918184 0.66155148
-1.7940241 3.1226854 0.65786147
-1.794333 3.2365141 0.6599353
-1.7748362 3.3704958 0.65775877
-1.689078 2.8896387 0.63654584
-1.7858541 2.9250491 0.65976661
-1.7817014 3.0367653 0.66077995
-1.7954885 3.137085 0.66577911
-1.7737505 3.2695253 0.6630528
-1.7553438 3.4036603 0.66113448
-1.710897 2.9069669 0.64680254
-1.8233457 2.929101 0.67348301
-1.7811108 3.070842 0.66611385
-1.7805818 3.1835868 0.66798216
-1.7677193 3.3100679 0.66720891
-1.7727779 3.4248662 0.67041802
-1.6870288 2.8539076 0.64525157
-1.72032 2.9359131 0.65449005
-1.8794107 2.9204962 0.69144648
-1.7916785 3.0988684 0.67406738
-1.7542157 3.2431757 0.66784698
-1.7502882 3.3638253 0.66905695
-1.7859665 3.452538 0.67897153
-1.674307 2.8770571 0.65607548
-1.7628106 2.9164953 0.67747843
-1.8745968 2.9352345 0.70396757
-1.795696 3.1076968 0.688519
-1.7515492 3.2581952 0.68081886
-1.7335578 3.3915558 0.67893952
-1.5487149 2.9296637 0.64318365
-1.6459371 2.9643652 0.66651428
-1.8279531 2.9289839 0.70844799
-1.840223 3.0260286 0.71300393
-1.7271882 3.2324455 0.69017029
-1.773767 3.4263229 0.70442796
-1.5021838 2.8706105 0.64713621
-1.4649994 3.0063918 0.64081287
-1.7029748 2.9319818 0.6950736
-1.8069522 2.9555092 0.71975607
-1.7368439 3.122056 0.70627922
-1.7085351 3.2595842 0.70205462
-1.482891 2.9528825 0.65921414
-1.5879343 2.9803624 0.68419546
-1.7003707 2.9987741 0.71074408
-1.7518282 3.0648196 0.72389799
-1.715059 3.2076209 0.7178036
-1.5186812 2.63534 0.67404628
-1.4758799 2.8712318 0.66815495
-1.5017443 2.9585097 0.67569959
-1.6604899 2.9413714 0.7124306
-1.688148 3.0261402 0.72035187
-1.7700641 3.0659328 0.74014962
-1.6748639 3.2607276 0.72131586
-1.5550723 2.6420052 0.6901632
-1.5208966 2.7673261 0.68436247
-1.4977109 2.8887141 0.68105465
-1.5706515 2.9389114 0.6989255
-1.7130533 2.9315071 0.73199433
-1.6878915 3.0594771 0.7283392
-1.7627656 3.1050034 0.74657995
-1.6254158 3.340446 0.71862346
-1.4311346 2.6594472 0.67036635
-1.4688439 2.7342815 0.6804592
-1.5316622 2.7909889 0.69608533
-1.5249258 2.9002931 0.69642186
-1.6441152 2.9124014 0.72440773
-1.7169311 2.9588103 0.74218595
-1.7002455 3.0804517 0.74041766
-1.6644541 3.2231896 0.73456424
-1.6324401 3.368114 0.72962636
-1.4897925 2.6391523 0.69508809
-1.3998899 2.8049073 0.6770069
-1.503141 2.8321934 0.70154119
-1.5285503 2.9173942 0.70893812
-1.6858468 2.8969181 0.74524182
-1.6525862 3.0304377 0.73980188
-1.7641463 3.0428324 0.76601684
-1.6404985 3.263818 0.74102199
-1.4328641 2.7433445 0.69520205
-1.4957322 2.7987139 0.71084756
-1.5515791 2.8587518 0.72493303
-1.6159892 2.9114113 0.74089199
-1.7037102 2.9435849 0.76194346
-1.6650168 3.0837646 0.75532472
-1.5934172 3.2592766 0.74162501
-1.5988461 3.3707585 0.74481839
-1.4217244 2.766753 0.70089364
-1.5238566 2.7912028 0.72527039
-1.5178871 2.8989511 0.72570628
-1.6663713 2.881999 0.76025176
-1.5735762 3.0661235 0.74162006
-1.6704297 3.0905368 0.76475847
-1.5563312 3.3062785 0.74166673
-1.4798807 2.658577 0.7140488
-1.4548993 2.7771697 0.71016937
-1.5335891 2.818382 0.72938502
-1.5437511 2.9135942 0.73338115
-1.6917619 2.8948872 0.76790404
-1.5482508 3.1248555 0.73800087
-1.7189516 3.0827067 0.77747041
-1.5556321 3.3459523 0.7434628
-1.449864 2.7031991 0.71565521
-1.5040585 2.7621658 0.72943783
-1.5437543 2.8323033 0.73999017
-1.5543798 2.927007 0.74410218
-1.6943744 2.9129827 0.77688313
-1.5747085 3.1242967 0.75224346
-1.5628935 3.247112 0.75153583
-1.5398918 3.3848946 0.74844593
-1.4609702 2.7128661 0.7254746
-1.4920028 2.7890227 0.73410231
-1.5092515 2.8773212 0.73967135
-1.5811727 2.9213388 0.75743532
-1.6015223 3.0090845 0.7637282
-1.5945375 3.1234553 0.76399839
-1.4751565 3.3469915 0.73949587
-1.4413705 2.75722 0.72750592
-1.5040864 2.8087571 0.74320614
-1.4915818 2.9217799 0.7421149
-1.6239893 2.9140286 0.77333432
-1.4970627 3.131922 0.74688715
-1.6088234 3.1411791 0.77350032
-1.4840394 3.3723328 0.74777859
-1.4187686 2.8079367 0.72697186
-1.5204197 2.8282175 0.7514075
-1.5387864 2.9156411 0.75719911
-1.677879 2.8993986 0.78991437
-1.581291 3.0910065 0.77015668
-1.504629 3.2733865 0.75497156
-1.4756659 3.4181228 0.7504766
-1.2230929 2.9747145 0.69576699
-1.4714098 2.8776233 0.75308001
-1.4908502 2.965282 0.75911015
-1.667002 2.9154339 0.80007792
-1.6008492 3.0808682 0.78706795
-1.4536036 3.3312888 0.75620162
-1.4429924 2.7533104 0.75780469
-1.3840197 2.9028301 0.74619734
-1.4038944 2.9910307 0.75232422
-1.4920312 3.0203819 0.77371371
-1.5728449 3.0541809 0.79343599
-1.625191 3.1132667 0.80680507
-1.4677099 3.3796535 0.77367955
-1.170715 2.9826622 0.70827514
-1.3047282 2.9781528 0.74007243
-1.422612 2.982744 0.76818043
-1.5688177 2.9575424 0.80254847
-1.5907004 3.0428071 0.80912346
-1.6074009 3.1350422 0.81457812
-1.131999 3.0462523 0.70484149
-1.3038915 3.0090952 0.74521077
-1.399689 3.0322974 0.76842797
-1.5975126 3.0643694 0.81611508
-1.1767757 3.0210049 0.72536176
-1.3028232 3.0200453 0.75547957
-1.3838532 3.055228 0.77543771
-1.5888032 3.0783865 0.82482392
-1.2691414 2.9987917 0.75810713
-1.4083161 2.9806254 0.79121828
-1.2648864 3.0076587 0.76754576
-1.3889979 3.0012679 0.7973426
-1.2816243 3.0236056 0.77598232
-1.3550642 3.0630839 0.79439622
