# .PCD v0.7 - Point Cloud Data file format
VERSION 0.7
FIELDS x y z
SIZE 4 4 4
TYPE F F F
COUNT 1 1 1
WIDTH 164
HEIGHT 1
VIEWPOINT 0 0 0 1 0 0 0
POINTS 164
DATA ascii
-3.9937508 14.428339 -0.92424911
-3.8362434 14.336466 -0.95961899
-3.9690015 14.386505 -0.93062115
-3.7778089 14.308971 -0.97249573
-3.9102261 14.366696 -0.94443977
-3.8451011 14.339883 -0.94796181
-3.97209 14.397144 -0.91323799
-3.9184406 14.372276 -0.90067524
-3.8828032 14.348436 -0.88759339
-3.9790919 14.410958 -0.84398371
-3.8272808 14.33178 -0.86856377
-3.9409983 14.395903 -0.83557057
-3.9064097 14.360531 -0.84376222
-3.855684 14.349124 -0.85987127
-3.9848776 14.396034 -0.83167297
-3.8120582 14.342805 -0.8643648
-3.9243748 14.379392 -0.82324207
-3.8845506 14.362914 -0.81222034
-3.8253903 14.359165 -0.79233032
-3.915323 14.376259 -0.75066161
-3.8423834 14.361674 -0.74979353
-3.9825475 14.391654 -0.7193802
-3.7802222 14.364888 -0.75555915
-3.9042833 14.377974 -0.72889757
-3.9815681 14.390329 -0.68583709
-3.9340591 14.381012 -0.6803214
-3.8658595 14.368754 -0.6766026
-3.9901488 14.404881 -0.64234674
-3.7848983 14.377614 -0.68368977
-3.9443481 14.374131 -0.64671034
-3.8895328 14.360399 -0.64373171
-3.8452489 14.353162 -0.63877422
-3.9497511 14.387282 -0.60213375
-3.7521343 14.384919 -0.63864917
-3.8969684 14.386034 -0.59852403
-3.8464108 14.362023 -0.58725709
-3.7845459 14.367249 -0.58762872
-3.9337611 14.368438 -0.55203635
-3.8622246 14.367493 -0.56374657
-3.9876602 14.416844 -0.54066223
-3.8064551 14.3768 -0.57340574
-3.9368057 14.386327 -0.53858471
-3.7592208 14.356921 -0.56993437
-3.9929538 14.437176 -0.49077865
-3.9713469 14.395765 -0.47329128
-3.7609253 14.374371 -0.50401688
-3.9142721 14.378561 -0.47099337
-3.840821 14.382107 -0.47606152
-3.9776776 14.401902 -0.44266984
-3.8031721 14.375976 -0.47703066
-3.9307747 14.381634 -0.44409567
-3.7329268 14.381121 -0.47783339
-3.8785858 14.382402 -0.43834147
-3.9654815 14.432633 -0.40075344
-3.9463737 14.381528 -0.38887718
-3.735862 14.384518 -0.42116931
-3.8965695 14.358993 -0.38074997
-3.8186462 14.389261 -0.37592515
-3.7670934 14.391814 -0.37495011
-3.905978 14.366189 -0.33921844
-3.8550241 14.366756 -0.34128049
-3.9548485 14.408578 -0.31959054
-3.785537 14.380209 -0.35173652
-3.9309638 14.376493 -0.31378293
-3.7123754 14.402281 -0.33846101
-3.9870141 14.495065 -0.27865729
-3.9743721 14.427633 -0.26143733
-3.785949 14.393412 -0.28650728
-3.7257504 14.413384 -0.28493387
-3.8638093 14.350679 -0.24710949
-3.8385375 14.360723 -0.24778369
-3.9386938 14.399676 -0.21082218
-3.7380769 14.418691 -0.23870146
-3.9980564 14.530752 -0.18247434
-3.9070282 14.356604 -0.19321033
-3.9529006 14.46692 -0.16572249
-3.8405755 14.346466 -0.18535197
-3.9357247 14.396259 -0.15471764
-3.7239661 14.407441 -0.185681
-3.9698298 14.542855 -0.13207182
-3.8873858 14.352421 -0.14458932
-3.8215864 14.34469 -0.13311516
-3.9200938 14.392949 -0.10209323
-3.7347171 14.396346 -0.13081889
-3.9805706 14.528735 -0.077641502
-3.8650029 14.346767 -0.087122127
-3.6416144 14.429642 -0.12401671
-3.937649 14.464599 -0.061722014
-3.8070683 14.3453 -0.079846971
-3.5521495 14.436717 -0.1116489
-3.8888409 14.391727 -0.041938633
-3.7030122 14.396669 -0.070694126
-3.8589454 14.34576 -0.030209797
-3.6168303 14.413481 -0.070529409
-3.907397 14.453943 -0.0094695045
-3.7574863 14.371646 -0.035338677
-3.551806 14.42103 -0.072762221
-3.8867586 14.372283 -0.0032931599
-3.6659229 14.397564 -0.034699839
-3.8271248 14.34556 0.0050569959
-3.5981386 14.423699 -0.032073051
-3.9097798 14.416162 0.033034224
-3.7258475 14.371269 0.01552027
-3.5256197 14.405747 -0.015901262
-3.8588474 14.353151 0.052735433
-3.4509418 14.407599 -0.010478408
-3.7842245 14.354925 0.057800736
-3.581773 14.401916 0.030200871
-3.8920405 14.390626 0.093914203
-3.7178898 14.384739 0.070208728
-3.9514029 14.532818 0.11960047
-3.5037792 14.403816 0.047579054
-3.8312051 14.356328 0.11398084
-3.636343 14.404065 0.083753943
-3.9288583 14.4255 0.14357318
-3.4500446 14.395103 0.056221165
-3.7687874 14.365507 0.12084063
-3.9981372 14.519816 0.16910799
-3.5572431 14.395988 0.089272305
-3.8663003 14.381058 0.15199219
-3.686681 14.385642 0.12007617
-3.9287767 14.512756 0.17056498
-3.5088592 14.397469 0.087272599
-3.8262837 14.364349 0.15160765
-3.6200986 14.396549 0.11276806
-3.9115255 14.414561 0.17250837
-3.4281187 14.392598 0.075698949
-3.7326865 14.386361 0.13825434
-3.9466071 14.574509 0.18397169
-3.558939 14.391042 0.1077753
-3.8705966 14.363327 0.17166004
-3.6467745 14.40632 0.14296331
-3.4939263 14.374931 0.11735769
-3.8011594 14.356004 0.18053633
-3.5997097 14.388625 0.14967932
-3.414325 14.367565 0.12585455
-3.6968465 14.403016 0.18444668
-3.5278926 14.390896 0.15746999
-3.8421764 14.350417 0.22185704
-3.6558158 14.385529 0.19029285
-3.4579017 14.384247 0.15789951
-3.7599363 14.370925 0.22039831
-3.5757644 14.378407 0.18749286
-3.4005723 14.384274 0.15485941
-3.6865356 14.407432 0.21477018
-3.4925408 14.387785 0.18215339
-3.6220045 14.379918 0.21257955
-3.4404745 14.368408 0.1836547
-3.7212753 14.397534 0.2432107
-3.5195296 14.385857 0.21246566
-3.6357021 14.404048 0.24234885
-3.4764647 14.376523 0.21358077
-3.5692437 14.386708 0.24560159
-3.3964601 14.368855 0.22051775
-3.6649628 14.422545 0.27831039
-3.5245383 14.359907 0.25640771
-3.4454348 14.369251 0.27485466
-3.5457392 14.385701 0.30739003
-3.4837618 14.370089 0.31842956
-3.4316244 14.33701 0.33829632
-3.4618034 14.364121 0.38225394
-3.5130472 14.364717 0.41600698
-3.4702318 14.348167 0.41751593
-3.5137708 14.354793 0.45932215
