# .PCD v0.7 - Point Cloud Data file format
VERSION 0.7
FIELDS x y z
SIZE 4 4 4
TYPE F F F
COUNT 1 1 1
WIDTH 54
HEIGHT 1
VIEWPOINT 0 0 0 1 0 0 0
POINTS 54
DATA ascii
-0.95068836 -8.1961765 -0.1591278
-0.96530157 -8.902256 -0.16079889
-0.94788724 -8.6091738 -0.16057712
-0.93837494 -8.3182621 -0.15861224
-0.96270365 -9.0416336 -0.16075851
-0.971497 -8.7083416 -0.15404502
-0.92272192 -8.1660948 -0.15728165
-0.91494083 -8.9024134 -0.1633206
-0.92179215 -8.5781088 -0.15711384
-0.91278106 -8.2876463 -0.15495388
-0.92213994 -8.9936743 -0.15458941
-0.87765718 -8.7317505 -0.16072446
-0.84686273 -8.1659222 -0.15930805
-0.90068656 -9.1326437 -0.15474908
-0.8883332 -8.8225946 -0.15283719
-0.84195125 -8.5696049 -0.15942952
-0.82075775 -8.2946367 -0.160032
-0.85263896 -8.977396 -0.15740915
-0.80846328 -8.7156839 -0.16326921
-0.76572144 -8.1655693 -0.16431834
-0.84554607 -9.1174307 -0.15897688
-0.79781646 -8.8550596 -0.16554491
-0.78127849 -8.5626268 -0.16461883
-0.75400543 -8.2954636 -0.166508
-0.78991312 -9.1191864 -0.16291095
-0.75995612 -8.833086 -0.16500063
-0.74984115 -8.5331736 -0.16239612
-0.72925705 -8.2587547 -0.16256261
-0.74598455 -8.9481983 -0.16112207
-0.73236918 -8.6476288 -0.15925013
-0.69623637 -8.388133 -0.16313164
-0.7445398 -9.0875921 -0.16112533
-0.71513647 -8.8019114 -0.16305934
-0.70556027 -8.5024338 -0.16028574
-0.68551147 -8.2284613 -0.16029805
-0.71670038 -8.9171352 -0.15780015
-0.6915704 -8.6327095 -0.15876864
-0.68022126 -8.3424425 -0.15652435
-0.70344514 -9.0413742 -0.15285616
-0.66288328 -8.7721539 -0.15761779
-0.65373981 -8.4731083 -0.15477589
-0.62171519 -8.2149658 -0.15778509
-0.6601041 -8.8952065 -0.15274562
-0.67139667 -8.5639591 -0.1447944
-0.63055962 -8.3134184 -0.14997233
-0.65824133 -8.9951315 -0.14409573
-0.61848795 -8.7265511 -0.14875248
-0.60406679 -8.435955 -0.14729919
-0.59750116 -8.1475935 -0.1440984
-0.623299 -8.8488932 -0.14586593
-0.61736244 -8.5418587 -0.14221191
-0.58917463 -8.2761488 -0.14428763
-0.63358992 -8.9630194 -0.14134263
-0.624026 -8.6552935 -0.13845271
