# .PCD v0.7 - Point Cloud Data file format
VERSION 0.7
FIELDS x y z
SIZE 4 4 4
TYPE F F F
COUNT 1 1 1
WIDTH 370
HEIGHT 1
VIEWPOINT 0 0 0 1 0 0 0
POINTS 370
DATA ascii
-3.1070671 -6.267241 0.16210949
-3.1441875 -6.2928019 0.18000084
-3.0869608 -6.2694607 0.19141234
-3.1459877 -6.2786679 0.2120623
-3.0754619 -6.2635818 0.22011864
-3.130389 -6.2789302 0.23785554
-3.1828258 -6.2937207 0.25574732
-3.1068282 -6.2756443 0.25375229
-3.1486373 -6.2967987 0.26588878
-3.1662354 -6.3237529 0.27487645
-3.0881379 -6.2781053 0.26082826
-3.1327641 -6.2904339 0.27708375
-3.1465068 -6.3177705 0.29423642
-3.0813193 -6.2580862 0.28893116
-3.1194999 -6.2776504 0.30716363
-3.1455224 -6.2945037 0.32489869
-3.1852124 -6.3119178 0.34109834
-3.0735281 -6.2679524 0.32854283
-3.1237588 -6.2853827 0.34196231
-3.1637049 -6.3102469 0.35337684
-3.0655639 -6.2607012 0.34149975
-3.1034338 -6.2782845 0.35572526
-3.1542151 -6.2948017 0.37025097
-3.1723862 -6.3430767 0.38027972
-3.0958791 -6.2708988 0.37360731
-3.1263769 -6.2863674 0.38811097
-3.1451151 -6.3177385 0.39905629
-3.1673772 -6.3654213 0.40698412
-3.087702 -6.2469473 0.39094967
-3.1553342 -6.3012519 0.41584739
-3.1497817 -6.3559394 0.42375019
-3.0975213 -6.2854438 0.41656554
-3.1403537 -6.2905135 0.43348682
-3.1504898 -6.3285599 0.44567737
-3.1785545 -6.3571496 0.4594093
-3.0816483 -6.2671275 0.43891343
-3.1020129 -6.2800817 0.45478225
-3.1431222 -6.2998323 0.46832952
-3.1672277 -6.3439093 0.47779489
-3.0789025 -6.2831969 0.4697639
-3.1215692 -6.2853417 0.4870702
-3.1588144 -6.3111029 0.5005573
-3.147671 -6.3618021 0.51148045
-3.1255255 -6.3010178 0.52316165
-2.9662595 -6.3162198 0.48665142
-3.1655269 -6.3590097 0.55151498
-3.0270903 -6.3431001 0.52031726
-2.919548 -6.2737117 0.49702576
-3.1391506 -6.3071413 0.5607028
-2.9709752 -6.3427668 0.52186799
-2.8634429 -6.2733655 0.49855566
-3.1487217 -6.320951 0.57307303
-2.9509645 -6.409471 0.52650762
-2.88889 -6.2645473 0.51473403
-3.1814611 -6.3526487 0.5846014
-3.0043206 -6.4085641 0.54324466
-2.9467342 -6.256052 0.53260964
-2.7881982 -6.2715931 0.49616277
-3.117099 -6.2859688 0.57649016
-2.9752564 -6.2808208 0.54416138
-2.8428531 -6.2555919 0.51432222
-3.1347399 -6.3002138 0.58971053
-2.9584377 -6.3565955 0.54844552
-2.8812845 -6.2386003 0.53279471
-3.1580706 -6.3224173 0.60293669
-2.962904 -6.4149671 0.5567134
-2.9145944 -6.246129 0.54851198
-2.751761 -6.2719221 0.5108155
-3.098295 -6.295588 0.60777366
-2.9524553 -6.3020329 0.57429969
-2.8456466 -6.2368264 0.55097926
-3.1718199 -6.3113055 0.64050996
-2.9699092 -6.4253197 0.59243357
-2.929503 -6.2405958 0.586357
-2.78845 -6.2357583 0.55421418
-3.1701355 -6.3483086 0.65348428
-2.9923608 -6.4201951 0.6116752
-2.9461935 -6.2448277 0.60411936
-2.8055246 -6.2414699 0.57206208
-3.1167297 -6.2737513 0.64820004
-2.962846 -6.3008618 0.61259866
-2.8511238 -6.2467093 0.5880037
-3.1473079 -6.2934666 0.66179061
-2.9703777 -6.3657789 0.62016684
-2.9010115 -6.2342582 0.60656345
-2.7505183 -6.2480869 0.57196796
-3.1600909 -6.3032756 0.6747399
-2.9564366 -6.4300323 0.62599117
-2.9234459 -6.2290821 0.62186474
-2.7736666 -6.2445488 0.58733451
-3.1735034 -6.3398442 0.6842221
-2.9935009 -6.4241276 0.64152372
-2.9501369 -6.2413034 0.63470346
-2.8153574 -6.2322598 0.60396379
-3.1273589 -6.2859945 0.68668741
-2.9482703 -6.3706937 0.64400929
-2.8871169 -6.2233534 0.6325261
-2.7381632 -6.2404175 0.59796417
-3.1554253 -6.3129687 0.69745964
-2.9680898 -6.416986 0.65250075
-2.9330084 -6.2172713 0.64795011
-2.78475 -6.2359757 0.6134907
-3.1813285 -6.3307085 0.71029335
-2.9951038 -6.4364486 0.66550189
-2.9631052 -6.2282896 0.66179198
-2.8294425 -6.2222304 0.63108712
-3.1798279 -6.3662195 0.72003943
-3.0762148 -6.3034711 0.69723415
-2.9515285 -6.2833185 0.66880649
-2.8496456 -6.2166634 0.64647031
-3.1257286 -6.2949953 0.71320343
-2.9576685 -6.3653798 0.67311966
-2.8951554 -6.2196774 0.66128337
-2.7522917 -6.2311735 0.6280722
-3.1626682 -6.303771 0.72751147
-2.9696267 -6.4295197 0.68066317
-2.9453459 -6.2042193 0.67911661
-2.7986794 -6.2261992 0.64484835
-3.1671863 -6.3403811 0.74112844
-2.9793587 -6.4588752 0.69562346
-2.9530888 -6.2338095 0.69357538
-2.8247652 -6.2218313 0.66414541
-3.1872118 -6.3668733 0.75628644
-3.071022 -6.3335981 0.73002619
-2.9594066 -6.2891407 0.7050187
-2.8573074 -6.2248631 0.6825608
-2.7196295 -6.2292004 0.6506722
-3.1414993 -6.3135462 0.7707994
-2.9598734 -6.4252801 0.72698611
-2.9240854 -6.2189088 0.72221851
-2.78756 -6.226335 0.69058067
-3.1964006 -6.3633289 0.79784703
-3.0805762 -6.3326378 0.77162313
-2.9774055 -6.272634 0.74881321
-2.8711243 -6.2198281 0.72516274
-2.7301447 -6.2361555 0.69234496
-3.1100936 -6.2941399 0.7897169
-2.9505737 -6.3625417 0.75165355
-2.8891945 -6.211226 0.74001926
-2.7489805 -6.2291255 0.70727831
-3.1764433 -6.3245525 0.81217349
-2.9871531 -6.4690933 0.76575655
-2.9628758 -6.2277508 0.76432759
-2.8362558 -6.2214851 0.73507112
-3.181289 -6.3582535 0.81989598
-3.0620692 -6.3392553 0.79246628
-2.9706035 -6.2541666 0.77266449
-2.8605192 -6.2129254 0.74775362
-2.7252383 -6.2233934 0.71606213
-3.1154199 -6.2900271 0.81196201
-2.9698689 -6.3343368 0.77720159
-2.8991604 -6.2029419 0.76300442
-2.7646599 -6.2149382 0.73139113
-3.1549716 -6.2945862 0.82632983
-2.9795105 -6.4137669 0.78324318
-2.9425676 -6.2006125 0.77835888
-2.8086362 -6.2140388 0.74683249
-3.1540442 -6.3173318 0.84070045
-2.9683967 -6.465744 0.79472142
-2.9447939 -6.2161403 0.79355127
-2.8233397 -6.2036285 0.7653777
-3.2141557 -6.3418531 0.87050569
-3.1103489 -6.2895474 0.84717381
-2.9776199 -6.3091693 0.81584585
-2.8981276 -6.1979017 0.79920846
-2.764797 -6.2127485 0.76782072
-3.1180308 -6.2928514 0.86457467
-2.963758 -6.3692703 0.82729471
-2.9094722 -6.1941991 0.81765121
-2.7807045 -6.2013464 0.78750896
-3.179914 -6.3255816 0.89250112
-3.023567 -6.4141207 0.85458475
-2.9736178 -6.2215338 0.84627271
-2.8605735 -6.194406 0.82042575
-2.7277708 -6.2106619 0.78923357
-3.1905363 -6.336051 0.90742326
-3.0763066 -6.3139248 0.88121605
-2.9693305 -6.2710705 0.85705221
-2.8780887 -6.1894603 0.83721519
-2.7419951 -6.2162333 0.80508047
-3.1144383 -6.2878418 0.89908427
-2.9833522 -6.3114281 0.8681587
-2.9095142 -6.1842656 0.85313988
-2.7818308 -6.1941009 0.82324082
-3.1401556 -6.3069544 0.91150951
-2.9886093 -6.3877091 0.87487018
-2.937927 -6.1958618 0.86638522
-2.8179586 -6.1884308 0.83860922
-3.1453683 -6.3164358 0.92533058
-2.9846101 -6.4266744 0.88601756
-2.9461539 -6.1979041 0.88100338
-2.8301666 -6.1823964 0.85427445
-2.6986396 -6.2013149 0.82333648
-3.0865946 -6.3148141 0.92436421
-2.9863656 -6.2563233 0.90198791
-2.8874619 -6.1961713 0.87994885
-2.7641294 -6.1990857 0.85112584
-3.0953848 -6.3142433 0.93744099
-2.9719949 -6.3225279 0.90841645
-2.9028194 -6.1788955 0.89467615
-2.7729473 -6.2016792 0.86388409
-3.1268747 -6.3227949 0.94916046
-2.9845142 -6.3887825 0.91460121
-2.9369512 -6.1798944 0.90695989
-2.8146882 -6.1853356 0.87814391
-3.1494858 -6.3311448 0.96198028
-2.9953208 -6.436285 0.9239307
-2.9619412 -6.1806502 0.92038405
-2.8400326 -6.1873069 0.89158356
-2.7100172 -6.2099986 0.86060321
-3.1600533 -6.3480978 0.97387177
-3.0189826 -6.4166622 0.93942124
-2.971271 -6.1992593 0.93177152
-2.8595395 -6.178884 0.90572822
-2.7337351 -6.1936178 0.87577611
-2.9845176 -6.2370362 0.94284201
-2.8888056 -6.1705565 0.92132062
-2.7602153 -6.1959262 0.8905071
-3.1133244 -6.3190951 0.97746402
-3.0002272 -6.3024554 0.95096964
-2.9288297 -6.161139 0.93638867
-2.8009419 -6.1878295 0.90568209
-3.1183066 -6.3267894 0.99353862
-2.987452 -6.3682985 0.96188116
-2.9328415 -6.170619 0.95213449
-2.8086653 -6.1891375 0.92242849
-2.6901195 -6.1863909 0.89440054
-3.0104504 -6.4989891 0.98113078
-2.9894524 -6.1781363 0.98125458
-2.8786197 -6.1612267 0.95525402
-2.7546022 -6.1798062 0.92556512
-2.9868226 -6.2146354 0.99217349
-2.8907619 -6.1511965 0.97037691
-2.7673919 -6.1710601 0.94077605
-3.1014299 -6.3314857 1.0209162
-2.994251 -6.2989941 0.99593639
-2.9232299 -6.1504488 0.98143065
-2.7972481 -6.1809912 0.95095956
-3.1099865 -6.3285298 1.0325603
-2.9811242 -6.3737965 1.0010626
-2.9280722 -6.1588249 0.99192423
-2.8086495 -6.1715817 0.96321082
-2.6882186 -6.1819115 0.93429524
-3.0204599 -6.4650083 1.0158035
-2.9872208 -6.1644235 1.012948
-2.8800828 -6.1413331 0.98765385
-2.7518909 -6.1826611 0.95621425
-2.9842365 -6.2198925 1.0204037
-2.893012 -6.1402159 0.9998458
-2.768461 -6.1733255 0.96933496
-3.1028204 -6.3231635 1.0522171
-2.9882641 -6.3228102 1.0246208
-2.9220526 -6.1476316 1.0116954
-2.8066325 -6.1533132 0.98378712
-2.6874475 -6.1661968 0.95484549
-3.1554091 -6.3523197 1.075891
-3.0170898 -6.4509001 1.0407336
-2.9792888 -6.1511936 1.0368454
-2.8672156 -6.1495461 1.0097865
-2.7460816 -6.1743641 0.98007381
-3.0139182 -6.5049582 1.0497702
-2.9777651 -6.1860995 1.0466659
-2.8758485 -6.1469169 1.0226903
-2.7580438 -6.1633716 0.99388397
-2.9875627 -6.2877512 1.0520482
-2.9092693 -6.1526918 1.0354611
-2.7972131 -6.1510744 1.0083263
-3.0940127 -6.3281651 1.0903736
-2.9710276 -6.3699536 1.059774
-2.9101069 -6.1579943 1.0487319
-2.798213 -6.1574373 1.0215745
-2.6830635 -6.1642885 0.99349499
-3.127069 -6.3307519 1.1033655
-2.9890749 -6.4417706 1.0678697
-2.9395781 -6.1719899 1.0606217
-2.8301747 -6.1627865 1.034201
-2.7233126 -6.1419382 1.0086045
-3.1470201 -6.3326101 1.1162308
-2.9974182 -6.5033493 1.0767936
-2.9587042 -6.1755743 1.0731823
-2.8494701 -6.1673698 1.0467415
-2.7400558 -6.1571198 1.0202942
-3.1492212 -6.3536725 1.1275311
-2.9481373 -6.2468314 1.080462
-2.8544805 -6.1715417 1.058995
-2.7451148 -6.1622858 1.032521
-2.9598522 -6.3276796 1.0865173
-2.8851447 -6.1655984 1.0712093
-2.7736247 -6.1670494 1.0439678
-2.661597 -6.1663632 1.0166401
-3.0981255 -6.353672 1.1237203
-2.9722581 -6.4182258 1.0917922
-2.9147675 -6.168961 1.0822979
-2.8057511 -6.1617608 1.0557963
-2.69399 -6.1621513 1.0284849
-3.1039155 -6.3451834 1.1361064
-2.9632294 -6.4891562 1.0990173
-2.9155326 -6.1817098 1.0930413
-2.806524 -6.1754551 1.0664845
-2.6972976 -6.1671619 1.0399117
-3.1259553 -6.3358498 1.1502016
-2.9328132 -6.193707 1.1055386
-2.8282139 -6.1689711 1.0803822
-2.7168868 -6.1714129 1.0530763
-3.157202 -6.3455796 1.1638927
-2.953064 -6.2540646 1.1155328
-2.8602755 -6.1716204 1.0943033
-2.7491622 -6.1750951 1.0670031
-2.9656713 -6.3338442 1.1246344
-2.887428 -6.1738677 1.1083704
-2.7764788 -6.1783862 1.0810845
-2.9565279 -6.4227314 1.1340648
-2.8894441 -6.1947079 1.1216747
-2.782656 -6.1806808 1.0956944
-3.1011024 -6.3346872 1.1803038
-2.9648268 -6.4824991 1.1441171
-2.9082847 -6.1863151 1.1354929
-2.7997267 -6.1830773 1.1088299
-3.1099894 -6.3439007 1.1925308
-2.9158535 -6.1972566 1.1472948
-2.8092177 -6.1852078 1.1212178
-2.6962137 -6.2004447 1.0930796
-3.1361372 -6.342556 1.2059737
-2.936048 -6.2272091 1.1586009
-2.8347104 -6.1866608 1.1342885
-2.7282307 -6.1736603 1.1082128
-3.1646864 -6.3604922 1.2188532
-2.9451525 -6.3552256 1.1646726
-2.8630872 -6.1974182 1.1471941
-2.7564497 -6.185379 1.121045
-2.9377201 -6.4234128 1.1764929
-2.865438 -6.1973324 1.1625221
-2.7570195 -6.1960802 1.1356848
-2.887321 -6.1970553 1.1762503
-2.7808952 -6.186985 1.1500378
-3.0990627 -6.347558 1.233353
-2.9020679 -6.206203 1.1869559
-2.7972667 -6.1872277 1.1612825
-3.1124821 -6.3347969 1.2471509
-2.9121485 -6.2150354 1.1994721
-2.8072538 -6.1969824 1.1737195
-2.7026696 -6.1770539 1.1480777
-3.1433773 -6.3411918 1.2590039
-2.9238276 -6.3517442 1.2042009
-2.8384256 -6.1962004 1.1857204
-2.7320712 -6.1870527 1.1594262
-3.1625433 -6.3372378 1.2724427
-2.93574 -6.4092007 1.2146075
-2.8556707 -6.2049146 1.1982539
-2.7509782 -6.1868639 1.1724646
-2.8632219 -6.2032533 1.211539
-2.7553918 -6.2058849 1.1845554
-2.8812666 -6.2502866 1.2234935
-2.7802491 -6.204411 1.1989951
-3.1198051 -6.3262815 1.3039901
-2.8949137 -6.402328 1.2462853
-2.7986748 -6.2985258 1.2238677
-3.1412296 -6.3307128 1.3183025
-2.8113401 -6.3752203 1.2347393
-3.1711924 -6.3345857 1.3326809
-3.1155424 -6.3267746 1.3515607
-3.1218207 -6.3298678 1.3654759
-3.1461344 -6.3325725 1.3791699
-3.1679468 -6.3547978 1.3925645
-3.0970724 -6.335258 1.3946953
-3.127522 -6.3468757 1.4099942
-3.1286309 -6.3378377 1.4269389
-3.1606581 -6.337707 1.4440392
-3.1780989 -6.3272877 1.4599959
-3.1015818 -6.3074169 1.4589592
