# .PCD v0.7 - Point Cloud Data file format
VERSION 0.7
FIELDS x y z
SIZE 4 4 4
TYPE F F F
COUNT 1 1 1
WIDTH 114
HEIGHT 1
VIEWPOINT 0 0 0 1 0 0 0
POINTS 114
DATA ascii
-2.1006191 14.74746 1.1929491
-2.104831 14.707542 1.2238033
-2.1401491 14.639463 1.261521
-2.3835776 14.715452 1.32231
-2.2460721 14.658231 1.2939765
-2.3320348 14.705394 1.3274854
-2.1792939 14.598776 1.3009154
-2.408766 14.781454 1.3605381
-2.2602282 14.70576 1.3288803
-2.1137128 14.708265 1.2949647
-2.3647611 14.732405 1.3570334
-2.2188756 14.616806 1.3271613
-2.4475756 14.817254 1.386983
-2.2924623 14.67364 1.3522184
-2.1477606 14.597623 1.3220565
-2.3727205 14.827803 1.3816261
-2.2171786 14.633615 1.3516766
-2.4464722 14.841899 1.4120791
-2.3016758 14.797692 1.3789469
-2.1742561 14.524558 1.347402
-2.3889091 14.851967 1.4063604
-2.230644 14.728908 1.3724527
-2.4747343 14.815845 1.4345403
-2.0831449 14.684025 1.3432848
-2.3260007 14.77306 1.405151
-2.1775761 14.609896 1.3786385
-2.4050329 14.845804 1.4393469
-2.2607517 14.723576 1.4101969
-2.5034995 14.828053 1.4724891
-2.1255863 14.530873 1.3802053
-2.3410404 14.87604 1.4400716
-2.2135959 14.66416 1.409325
-2.4455643 14.878064 1.4710389
-2.2686882 14.846606 1.4347569
-2.5284607 14.769595 1.4984771
-2.1540184 14.535904 1.4001399
-2.3713992 14.889036 1.4607018
-2.2965209 14.890361 1.4544033
-2.5574875 14.791047 1.5183566
-2.1629996 14.679702 1.4223564
-2.3967903 14.89144 1.4846199
-2.649245 14.909521 1.5483919
-2.2580647 14.811292 1.4510791
-2.5070543 14.861468 1.5145175
-2.3363342 14.96161 1.4816072
-2.6030602 14.770173 1.5456135
-2.1777565 14.812782 1.4414643
-2.4245574 14.89285 1.5049088
-2.6720891 14.998487 1.5689377
-2.2758315 14.883582 1.4711375
-2.5324469 14.831731 1.53506
-2.7666013 15.224751 1.600196
-2.3405373 14.982867 1.5007783
-2.6046038 14.808993 1.5648472
-2.2009389 14.873694 1.4670837
-2.4542303 14.87175 1.5311348
-2.6998811 15.025064 1.5956242
-2.2785234 14.962576 1.497043
-2.5379167 14.868622 1.561344
-2.7764416 15.239598 1.6274341
-2.3624179 14.960754 1.525896
-2.6222308 14.834556 1.5899178
-2.2095289 14.902329 1.48976
-2.4641371 14.878311 1.5540552
-2.7071912 15.129492 1.6195014
-2.3023324 15.08047 1.5160457
-2.5674384 14.884572 1.5805576
-2.8105419 15.203587 1.6469649
-2.3859856 14.909052 1.5396416
-2.6370068 14.9605 1.6041818
-2.2250786 15.012292 1.5003735
-2.4861629 14.876296 1.5649923
-2.7290907 15.195337 1.63111
-2.3256316 15.050073 1.5312146
-2.5846007 14.951708 1.5958624
-2.8328934 15.198557 1.6623917
-2.4089119 14.87653 1.5645286
-2.6547391 15.09555 1.6302035
-2.2485487 15.179935 1.5339106
-2.5144544 14.951672 1.5987692
-2.763581 15.158449 1.6652217
-2.3536744 14.966774 1.5679092
-2.6067092 14.985819 1.6329093
-2.8580465 15.190285 1.6999911
-2.4630361 14.892076 1.6008599
-2.7102091 15.148709 1.6676089
-2.2786474 15.167168 1.5700302
-2.5412245 14.966306 1.6345928
-2.7925527 15.150646 1.7015134
-2.3989911 14.902933 1.6018564
-2.6472144 15.119448 1.6684337
-2.2123883 15.11837 1.5704527
-2.4734998 14.937337 1.6349083
-2.7243505 15.131534 1.7017778
-2.4288712 14.898125 1.6366334
-2.6788583 15.1222 1.7035197
-2.2422233 15.164884 1.6058923
-2.5027368 14.961347 1.6696519
-2.7557509 15.133101 1.7364452
-2.3594871 14.959118 1.6381793
-2.6112192 15.123096 1.7044898
-2.2838416 15.129872 1.6391762
-2.5401239 15.113828 1.7042645
-2.3861902 14.93307 1.6687666
-2.6388645 15.134626 1.7357354
-2.2384353 15.151052 1.6375771
-2.4963663 14.984918 1.7012153
-2.3167801 15.104019 1.670366
-2.2643545 15.104806 1.6676896
-2.5199125 14.966225 1.7312604
-2.3420355 15.036583 1.6972795
-2.450551 15.017444 1.7261193
-2.3737996 15.037945 1.7261633
-2.2194314 15.108363 1.6922477
