# .PCD v0.7 - Point Cloud Data file format
VERSION 0.7
FIELDS x y z
SIZE 4 4 4
TYPE F F F
COUNT 1 1 1
WIDTH 666
HEIGHT 1
VIEWPOINT 0 0 0 1 0 0 0
POINTS 666
DATA ascii
6.3634768 15.002161 -0.80418986
6.5273504 14.915492 -0.83838284
6.364306 15.236679 -0.7925545
6.4078708 14.964839 -0.79666257
6.422421 15.545838 -0.78946245
6.3514938 15.117419 -0.77562147
6.4405017 14.941988 -0.80043823
6.3880372 15.424444 -0.77876157
6.346293 15.036534 -0.76893705
6.5000153 14.919628 -0.80806005
6.3806276 15.303536 -0.77181137
6.3854623 14.989471 -0.77415478
6.4071846 15.586134 -0.76883733
6.3582397 15.156239 -0.7580989
6.4237309 14.940118 -0.77758396
6.402009 15.470276 -0.76276463
6.3399272 15.049147 -0.75315291
6.4835405 14.916674 -0.78681821
6.3902421 15.339461 -0.75632471
6.7106361 14.929656 -0.8361094
6.3725219 14.994311 -0.75103366
6.4233694 15.639773 -0.75240612
6.5373931 14.903988 -0.78284687
6.3723598 15.219427 -0.73625398
6.7802711 14.93374 -0.83675748
6.4141693 14.957297 -0.74521935
6.4217896 15.535969 -0.73687631
6.6021881 14.915399 -0.78990608
6.3485055 15.099026 -0.72339249
6.4380102 14.918094 -0.74658549
6.3862009 15.40507 -0.72504061
6.6759505 14.916395 -0.80372047
6.355968 15.001113 -0.72213632
6.4975948 14.902999 -0.7634111
6.3750858 15.282006 -0.72621435
6.935287 14.883722 -0.86614424
6.5703778 14.906405 -0.77405572
6.3605628 15.152716 -0.71722627
7.0647106 14.757199 -0.89629143
6.802422 14.929319 -0.82751882
6.4270964 14.931621 -0.73312742
6.3992486 15.458814 -0.71743852
6.9588032 14.852575 -0.86614847
6.6167789 14.907604 -0.77924126
6.3360362 15.046099 -0.70638233
7.0950027 14.72587 -0.89503217
6.8446064 14.913856 -0.82898474
6.4640856 14.907696 -0.73335928
6.3882203 15.35953 -0.70692617
7.0077753 14.814675 -0.87293571
6.7112122 14.934715 -0.79634815
6.364717 14.97396 -0.7084446
6.4127226 15.626125 -0.71034962
6.9002547 14.90076 -0.84280699
6.5255332 14.902582 -0.74828243
6.3420858 15.187474 -0.6976102
7.0609531 14.78285 -0.87793261
6.787323 14.935249 -0.80645734
6.4136558 14.933012 -0.71208704
6.4198647 15.517582 -0.70465916
6.9573154 14.876085 -0.84948856
6.5996304 14.902358 -0.7586205
6.3248219 15.045443 -0.68693024
7.0882225 14.732248 -0.87960082
6.8490043 14.933244 -0.81593961
6.4645143 14.914489 -0.71882719
6.3968129 15.381417 -0.69455642
7.0122161 14.830453 -0.85437208
6.6939516 14.914066 -0.77238017
6.3652339 14.974077 -0.68808997
6.4197807 15.642525 -0.69183129
6.9051008 14.904447 -0.82435971
6.5264974 14.893844 -0.72840041
6.3583536 15.201275 -0.68114066
7.0365171 14.785562 -0.86094695
6.7631316 14.934718 -0.7893216
6.3963504 14.936807 -0.69611001
6.3992367 15.520531 -0.68834513
7.1745138 14.635491 -0.89486206
6.9704475 14.884714 -0.8395015
6.6084819 14.898956 -0.74727708
6.3499842 15.064038 -0.67925483
7.3469877 14.574903 -0.94150549
7.0822959 14.736857 -0.87196201
6.8484168 14.943151 -0.80966145
6.4546752 14.903728 -0.70999593
6.4057198 15.402777 -0.69080156
7.2094488 14.613234 -0.90289146
7.0001698 14.853955 -0.84638679
6.6660118 14.909215 -0.76056063
6.3436813 14.973763 -0.67761904
6.4043188 15.658669 -0.68391925
7.4171376 14.569307 -0.94682062
7.1356225 14.706689 -0.87315995
6.9188275 14.937247 -0.81475759
6.5145278 14.880962 -0.71237355
6.3926191 15.261663 -0.67615879
7.2610245 14.592147 -0.90343928
7.029789 14.79974 -0.84157002
6.7510891 14.937099 -0.76852643
6.3806334 14.926358 -0.67404687
6.4109545 15.559841 -0.67322856
7.1507664 14.662385 -0.86757332
6.9457965 14.908741 -0.8117941
6.5582838 14.876906 -0.71311617
6.3370366 15.09721 -0.65352553
7.3021064 14.580427 -0.90233159
7.0599408 14.771335 -0.83776641
6.8035469 14.94134 -0.7698456
6.4172454 14.905282 -0.67148888
6.3961902 15.453679 -0.65863198
7.2006865 14.643044 -0.8662442
6.9904923 14.880752 -0.80914599
6.619648 14.873378 -0.71422702
6.3409257 15.000661 -0.64107418
6.4166121 15.719511 -0.65066814
7.3593078 14.578515 -0.90432459
7.1004791 14.744595 -0.83571863
6.8608847 14.938964 -0.77166122
6.4588962 14.877421 -0.6694442
6.3762832 15.323618 -0.64221096
7.2422037 14.60852 -0.85856014
7.0380535 14.853858 -0.80294746
6.7052832 14.904313 -0.71701467
6.3738227 14.947337 -0.63151497
6.424715 15.622922 -0.63544345
7.2664709 14.581156 -0.84597105
7.0572424 14.817749 -0.78931403
6.7626438 14.925988 -0.71255368
6.3838744 14.893068 -0.61616951
6.4202461 15.542414 -0.61676985
7.1720657 14.641267 -0.80233377
6.9939079 14.925324 -0.75312477
6.5923171 14.863098 -0.65151191
6.3347359 15.020261 -0.5837273
7.3140144 14.553891 -0.83255368
7.0996776 14.781745 -0.77492172
6.8378029 14.939473 -0.70610088
6.4431844 14.881143 -0.60629553
6.4135885 15.419346 -0.59165621
7.3844585 14.55825 -0.8315534
7.1316009 14.728238 -0.76491773
6.9081535 14.943651 -0.70518416
6.4979401 14.859827 -0.60176587
6.3722897 15.23551 -0.56485897
7.252007 14.592813 -0.79141247
7.0582881 14.851138 -0.73873645
6.7267675 14.896859 -0.65368301
6.3812237 14.909719 -0.56547987
6.4326968 15.592906 -0.56981647
7.424727 14.555392 -0.83318305
7.1444483 14.683892 -0.76010716
6.9538274 14.948761 -0.70814133
6.5384226 14.856321 -0.60344207
6.3114119 15.061043 -0.54296875
7.2964692 14.565865 -0.78830934
7.0869131 14.798768 -0.73191047
6.8144021 14.936089 -0.66066921
6.4323473 14.889664 -0.56382239
6.4289932 15.47815 -0.55549341
7.3420124 14.560802 -0.79328096
7.0946579 14.735393 -0.72791857
6.8760281 14.955913 -0.66931903
6.4680924 14.867093 -0.56621915
6.3752503 15.300707 -0.53709406
7.2235603 14.583817 -0.75564075
7.0453639 14.864014 -0.70660663
6.7097473 14.89707 -0.62034446
6.3759007 14.922599 -0.53462642
6.4370532 15.631336 -0.54154831
7.3987217 14.548084 -0.80377007
7.1353951 14.697484 -0.73450083
6.9437833 14.959516 -0.6822511
6.5359454 14.870588 -0.5788179
6.3333244 15.115206 -0.52395588
7.4546137 14.527681 -0.81287479
7.1809583 14.660065 -0.74077463
7.0058608 14.946756 -0.69220722
6.5985079 14.857496 -0.58832473
6.3414211 15.007351 -0.5202806
6.3864784 15.699269 -0.52356035
7.3139811 14.550994 -0.77530974
7.0883431 14.75533 -0.7146439
6.858716 14.955939 -0.6529898
6.4534597 14.862124 -0.54951608
6.4122076 15.388824 -0.53259659
7.1950197 14.612752 -0.74496078
7.0101757 14.882021 -0.69401902
6.6552563 14.876951 -0.60232919
6.3381648 14.923821 -0.51981091
6.3989773 15.640905 -0.52711004
7.3851099 14.552749 -0.78691441
7.1381164 14.723623 -0.72108126
6.9194074 14.940754 -0.6620338
6.5144944 14.846721 -0.55838257
6.3508654 15.15731 -0.51251322
7.4248381 14.530171 -0.79357302
7.1515865 14.658938 -0.72145057
6.9754848 14.942949 -0.67280132
6.5655646 14.840339 -0.56779289
6.3236227 15.012634 -0.503304
7.1906362 14.619758 -0.7238844
7.0255723 14.92018 -0.6779753
6.6464005 14.868527 -0.58020556
6.3452392 14.937387 -0.50140941
6.3959837 15.64558 -0.50723153
7.2397475 14.58007 -0.7245487
7.0598507 14.854616 -0.67487305
6.742444 14.904749 -0.59175897
6.3918314 14.887508 -0.50071019
6.4338679 15.577744 -0.5044359
7.4180036 14.538217 -0.76887995
7.1609359 14.688672 -0.70030791
6.9834108 14.970346 -0.65110338
6.5656943 14.846054 -0.54351741
6.3284917 15.023944 -0.47983405
7.2783237 14.563335 -0.73321825
7.0728283 14.795401 -0.67715186
6.7967834 14.913293 -0.60384119
6.4314122 14.870229 -0.5088647
6.3930054 15.411951 -0.49323121
7.2012219 14.626703 -0.70628804
7.0299301 14.91629 -0.65852076
6.6528931 14.860341 -0.56042248
6.352808 14.925625 -0.4812313
6.413125 15.659667 -0.48955381
7.3582368 14.54107 -0.74827975
7.122148 14.722337 -0.68458676
6.4980578 14.822013 -0.51998693
6.3514695 15.162686 -0.4781701
7.2364321 14.580143 -0.71559542
7.0506396 14.843855 -0.66429442
6.7244887 14.8733 -0.5784288
6.3855834 14.869502 -0.48953658
6.4236565 15.559186 -0.49285918
7.4455447 14.546051 -0.77087951
7.1834416 14.685275 -0.70071346
6.5801735 14.819088 -0.54090691
6.333868 14.976714 -0.47472754
6.4024777 15.737473 -0.48588249
7.2919054 14.543449 -0.73236257
7.0812106 14.764394 -0.6749692
6.8310027 14.922006 -0.60773057
6.4478688 14.840803 -0.50759721
6.3976421 15.363741 -0.48978946
7.1981592 14.614222 -0.70597857
7.0363212 14.918637 -0.66071552
6.6611094 14.859054 -0.56231099
6.3476429 14.895166 -0.47936684
6.4132218 15.646331 -0.49024013
7.3683958 14.531391 -0.74660957
7.1323996 14.709857 -0.68280208
6.5203128 14.820177 -0.52025318
6.3348341 15.088932 -0.4690311
7.2603374 14.576359 -0.71291339
7.0688806 14.829239 -0.66022682
6.763742 14.889751 -0.57908183
6.4116616 14.856617 -0.48630494
6.4273505 15.510612 -0.48505238
7.4282732 14.526266 -0.7557832
7.1616397 14.653896 -0.68420929
6.5851808 14.824166 -0.53032833
6.315362 14.935466 -0.45804459
6.3663473 15.669207 -0.46553427
7.3169971 14.528056 -0.71545976
7.1163044 14.763517 -0.66042602
6.8612976 14.909857 -0.59173369
6.4849896 14.833642 -0.49272695
6.358326 15.214725 -0.45611349
7.2261558 14.59584 -0.68691474
7.0636344 14.89811 -0.6414575
6.7097807 14.869493 -0.54792649
6.3782954 14.867702 -0.46010795
6.4308581 15.600824 -0.4682321
7.3857517 14.531078 -0.72775596
7.1395373 14.68996 -0.66127741
6.5439496 14.820045 -0.50241721
6.3114276 14.998854 -0.43941438
7.2792721 14.539124 -0.69754308
7.0977964 14.806672 -0.64755982
6.8179803 14.907404 -0.57265502
6.452898 14.845052 -0.4762716
6.4197192 15.410134 -0.46355367
7.4625092 14.51659 -0.74823809
7.191236 14.632936 -0.67554623
6.6356401 14.832104 -0.52691334
6.3382363 14.888198 -0.4476777
6.39468 15.63905 -0.4578343
7.3287578 14.518675 -0.71067077
7.1227264 14.743262 -0.65463078
6.4987221 14.815759 -0.48858458
6.3297296 15.115682 -0.44192114
7.2219925 14.57954 -0.67747569
7.0585432 14.879663 -0.63230133
6.7206492 14.873589 -0.54263836
6.3809271 14.851092 -0.45258996
6.4157205 15.557255 -0.45762533
7.4036636 14.507665 -0.71723765
7.1678662 14.68079 -0.65353441
6.5834579 14.822212 -0.49734282
6.3233762 14.945663 -0.42747673
6.3782907 15.705805 -0.43760902
7.2786927 14.542476 -0.68050444
7.0913453 14.799204 -0.62915564
6.8263798 14.923001 -0.55793399
6.4442153 14.822024 -0.45684409
6.3767204 15.323911 -0.43594748
7.4851317 14.513586 -0.72664636
7.2093153 14.618309 -0.65262127
6.6740093 14.846129 -0.50880903
6.3634834 14.872787 -0.42598134
6.4197397 15.632262 -0.43666729
7.3420148 14.505627 -0.68481052
7.1307826 14.718985 -0.62735283
6.5188313 14.801981 -0.46384534
6.313035 15.028801 -0.40776461
7.2412767 14.573745 -0.65139616
7.0816431 14.880356 -0.60720855
6.7497497 14.879521 -0.51879984
6.4022274 14.835962 -0.42645913
6.4283648 15.532753 -0.42964458
7.4263911 14.503965 -0.6836946
7.1905642 14.674296 -0.61999476
6.6077795 14.809246 -0.4641403
6.3391609 14.912035 -0.39208007
6.3896923 15.671725 -0.40139744
7.2948742 14.529372 -0.64295667
7.1117511 14.792279 -0.59283525
6.4670768 14.808086 -0.42125487
6.3264322 15.166135 -0.38192219
7.3575544 14.494162 -0.64030451
7.155673 14.722109 -0.58543402
6.5407519 14.789594 -0.42153373
6.3211889 14.987161 -0.36211783
6.3609681 15.738363 -0.36881986
7.2600203 14.560418 -0.60884851
6.782814 14.886555 -0.48030704
6.4232392 14.812809 -0.38504508
6.4192257 15.455322 -0.38077608
7.4184809 14.510137 -0.64969802
7.1774969 14.669044 -0.58485466
6.600708 14.806242 -0.43079641
6.3191614 14.879331 -0.35556918
6.373529 15.656538 -0.3663587
7.295095 14.516483 -0.60876817
7.1160913 14.785614 -0.55989635
6.4785433 14.803201 -0.39018998
6.3102183 15.105712 -0.34400257
7.5134659 14.525039 -0.66518515
7.2286358 14.606314 -0.5890404
6.7087235 14.84842 -0.44967082
6.3780437 14.824059 -0.36174512
6.4292254 15.5918 -0.37228778
7.3595815 14.497524 -0.62103647
7.1522074 14.71436 -0.56500369
6.5438538 14.784015 -0.40276483
6.3022046 14.934371 -0.33785787
6.3502722 15.711948 -0.34772459
7.2750931 14.546144 -0.59221512
6.8119054 14.892974 -0.46752408
6.4408693 14.788897 -0.36895555
6.3947363 15.349725 -0.35472378
7.4278102 14.489489 -0.6331498
7.1919508 14.654052 -0.56961453
6.6305618 14.811192 -0.41917282
6.3365526 14.854457 -0.34051162
6.38589 15.631338 -0.35109261
7.501121 14.514455 -0.64225686
7.2171412 14.59232 -0.56593949
6.7117019 14.854694 -0.42967391
6.3780489 14.81788 -0.34045115
6.4155302 15.567384 -0.34788084
7.3680696 14.475815 -0.59378368
7.169992 14.707318 -0.53990477
6.5728383 14.787865 -0.37963226
6.3140926 14.899574 -0.30991596
6.3654876 15.694823 -0.32090852
7.2590475 14.530735 -0.55789244
6.8094497 14.898339 -0.43618253
6.4404092 14.79039 -0.33771244
6.3154597 15.187881 -0.3028565
7.4530616 14.483006 -0.59514868
7.2125235 14.63597 -0.53021193
6.674984 14.831031 -0.38560057
6.3601637 14.826408 -0.30131564
6.4087644 15.611983 -0.31162751
7.534462 14.513406 -0.6027174
7.2416272 14.570714 -0.52416348
6.7591467 14.871696 -0.39405495
6.4052467 14.786786 -0.29962468
6.3931818 15.436215 -0.29426673
7.4121947 14.467688 -0.55702913
7.20434 14.679398 -0.50077152
6.626967 14.789397 -0.34598655
6.3432031 14.844532 -0.26990846
6.3865843 15.630162 -0.27907974
7.2955699 14.500628 -0.52174938
6.4795527 14.751739 -0.30278948
6.2998314 15.02986 -0.25390312
7.4801483 14.469462 -0.5638718
7.2212467 14.584921 -0.4943054
6.7165022 14.836721 -0.35861182
6.3857679 14.793414 -0.27028987
6.4223914 15.560466 -0.27790228
7.3702741 14.468553 -0.52427781
7.1846929 14.72208 -0.47396278
6.5814195 14.773348 -0.31249487
6.3149066 14.861812 -0.24098352
6.3688264 15.683959 -0.25318074
7.5828581 14.500183 -0.57468385
7.276875 14.528404 -0.49276316
6.8347611 14.90453 -0.37351739
6.4607668 14.771886 -0.27382106
6.2997346 15.093657 -0.22990765
7.4172301 14.449085 -0.52482903
7.1999598 14.640806 -0.46619987
6.6591687 14.816374 -0.32106256
6.3424435 14.796709 -0.23637749
6.3935795 15.609214 -0.24793519
7.3341942 14.482724 -0.48506764
7.1519361 14.742974 -0.43549484
6.5287647 14.743113 -0.2686201
6.30756 14.928415 -0.20883662
6.3390431 15.71445 -0.21495056
7.3733153 14.447234 -0.47831053
7.1826653 14.689449 -0.42645043
6.5991116 14.769719 -0.26982713
6.3127294 14.809894 -0.19296089
6.3734655 15.659097 -0.20652382
7.6004572 14.473671 -0.52221185
7.3050852 14.51582 -0.44288415
6.4829721 14.731696 -0.22175173
6.3011675 15.005586 -0.17207426
6.3257604 15.792011 -0.17596483
7.4440646 14.437904 -0.47360128
7.2265759 14.626911 -0.4147065
6.6997046 14.823195 -0.27292353
6.3719516 14.77297 -0.18530738
6.4138827 15.576101 -0.19382097
7.334712 14.461945 -0.4343352
6.544241 14.739821 -0.22170796
6.2908845 14.849645 -0.15348668
6.3449125 15.699212 -0.1650774
7.5103202 14.446838 -0.4727883
7.2521391 14.556248 -0.40340418
6.7737632 14.850386 -0.2745524
6.4171872 14.736794 -0.17958178
6.2806382 15.11848 -0.14184298
7.3916798 14.42902 -0.42070127
7.2047853 14.677544 -0.37013617
6.6271858 14.760069 -0.21599987
6.3376207 14.787891 -0.13877039
6.392416 15.636989 -0.15073577
7.593205 14.47678 -0.46402669
7.2939444 14.506647 -0.38440645
6.4774551 14.721828 -0.1667812
6.2787547 14.956813 -0.11327497
6.2944613 15.733385 -0.11513035
7.4522104 14.416242 -0.40824169
7.2432981 14.62001 -0.35224688
6.7087374 14.791648 -0.20999044
6.3868728 14.746531 -0.12477206
6.4114766 15.521761 -0.12903501
7.5087137 14.428356 -0.40811414
7.2598085 14.552046 -0.34183776
6.7687135 14.812769 -0.21102987
6.4306998 14.73119 -0.12171299
6.272615 15.064937 -0.078917481
7.4027553 14.426461 -0.36764142
7.2234645 14.69022 -0.31942469
6.6551504 14.78397 -0.16855526
6.3543839 14.780996 -0.088848948
6.402276 15.630054 -0.099294409
7.5983047 14.466648 -0.41546869
7.3002324 14.492681 -0.33636197
6.4901509 14.706456 -0.12100051
6.2791834 14.911189 -0.064521387
6.3112473 15.742659 -0.070848048
7.4518685 14.418761 -0.36827654
7.2380424 14.610894 -0.31103069
6.7169495 14.803189 -0.17225793
6.3887801 14.736175 -0.085359998
7.3562136 14.450046 -0.3329232
6.5801439 14.73552 -0.12619129
6.307889 14.793265 -0.05377537
6.3636794 15.679446 -0.066326819
7.5326567 14.429752 -0.37279829
7.2838888 14.550399 -0.30646482
6.4492812 14.701413 -0.084532574
6.2748699 14.996005 -0.037513603
7.390635 14.415224 -0.33128589
7.2018366 14.658613 -0.28060284
6.6558347 14.791011 -0.13535987
6.3408327 14.747985 -0.051842149
6.3863468 15.606042 -0.06193551
7.61482 14.448863 -0.37965658
7.3180408 14.471297 -0.30082181
6.5223589 14.702693 -0.089094847
6.2809 14.831097 -0.024723994
6.3363881 15.736219 -0.037573803
7.4610929 14.39074 -0.33325016
7.2514553 14.58896 -0.27716693
6.7554183 14.829597 -0.14491333
6.4133053 14.722403 -0.054239761
6.2734075 15.107754 -0.016311392
7.3542881 14.418799 -0.29695347
6.6000981 14.740389 -0.095986784
6.3208251 14.776719 -0.021731054
6.3664322 15.653553 -0.032162264
7.55548 14.416644 -0.34012035
7.2943082 14.507366 -0.27056688
6.4868641 14.703314 -0.055683669
6.2780976 14.912507 0.00015702352
6.2975893 15.743646 -0.0035491772
7.4102449 14.381362 -0.29909864
7.2294092 14.640233 -0.2506521
6.6928535 14.784727 -0.1078651
6.3793421 14.738393 -0.02463565
7.6258192 14.44215 -0.35242629
7.3259268 14.452358 -0.27267697
6.5479817 14.711573 -0.065492965
6.284482 14.781927 0.0046584164
6.3341732 15.686792 -0.0073804408
7.4959679 14.390057 -0.31179088
7.273212 14.558866 -0.25233075
6.4460664 14.701377 -0.032023348
6.2614455 14.973417 0.0173866
7.3862977 14.41736 -0.27794185
7.2119541 14.692486 -0.23130396
6.6404066 14.749264 -0.079084978
6.3434782 14.73651 -3.5891058e-05
6.3798103 15.603748 -0.0090278685
7.5624142 14.427551 -0.32156396
7.2846584 14.479417 -0.24753006
6.5024638 14.721412 -0.038970411
6.2533436 14.826213 0.027473569
6.2952266 15.731431 0.016955173
7.4442391 14.383512 -0.27632388
7.2499294 14.613011 -0.22430111
6.7456622 14.824707 -0.089606903
6.4074893 14.710501 0.00051619293
6.2525868 15.064442 0.042126141
7.5086293 14.402472 -0.2770339
7.2688994 14.532472 -0.21287864
6.4524951 14.68349 0.0053014965
6.2423592 14.887933 0.061632298
6.2695594 15.77478 0.055289213
7.4099598 14.39015 -0.23603743
7.2267814 14.644702 -0.18683311
6.6921058 14.777516 -0.043872986
6.3816309 14.724586 0.039003909
7.6072378 14.435884 -0.28265887
7.3177123 14.457595 -0.20534645
6.5487485 14.718352 0.00019171902
6.278851 14.764517 0.072287954
6.3183351 15.678723 0.06264706
7.3759451 14.401464 -0.2061293
6.6462579 14.753861 -0.011286675
6.344399 14.716434 0.069232978
7.5549932 14.396397 -0.25121289
7.3032293 14.496594 -0.18400764
6.5081429 14.685203 0.028220361
6.2563128 14.775265 0.095441133
6.2985806 15.717801 0.084229603
7.4205484 14.384002 -0.21627899
7.2244606 14.609109 -0.16395132
6.7244697 14.819397 -0.030438717
6.3832073 14.679833 0.060761988
6.2146916 15.001976 0.10569888
7.6419573 14.42487 -0.26650336
7.3454642 14.425279 -0.18716438
6.6039672 14.742333 0.011126302
6.3103743 14.720447 0.089702301
6.3468819 15.643788 0.079543814
7.4993501 14.377305 -0.22472012
7.2758121 14.538408 -0.16488011
6.4594774 14.663285 0.053886753
6.2381263 14.835026 0.11313918
6.2687979 15.768522 0.10444496
7.3787456 14.381846 -0.18626814
7.1972799 14.641253 -0.13769722
6.6680675 14.772047 0.0042237686
6.3502622 14.684746 0.089525901
6.2089128 15.089769 0.12726916
7.588357 14.396825 -0.22578299
7.3211265 14.457604 -0.15405953
6.5542474 14.701734 0.051748991
6.2824631 14.732795 0.12470188
6.3210449 15.684558 0.11409718
7.4458394 14.354963 -0.17644139
7.2493439 14.577471 -0.12375636
6.4191794 14.656882 0.098870501
6.2231884 14.901552 0.15141664
6.2300768 15.788018 0.14951928
7.66085 14.423017 -0.2171846
7.3536859 14.392731 -0.13494408
6.6387463 14.766051 0.056577813
6.3226628 14.67547 0.14119202
7.5263529 14.345134 -0.16604853
7.3029289 14.503432 -0.1063822
6.5069861 14.665558 0.10615382
6.2589645 14.759578 0.17238183
6.2930026 15.721016 0.16330269
7.4226031 14.365512 -0.12766705
7.2363305 14.61349 -0.078021161
6.7330127 14.803565 0.05615731
6.3995423 14.66629 0.14507253
6.2147269 14.946751 0.19432311
7.5997381 14.391441 -0.1654083
7.3174005 14.412621 -0.090239003
6.5768447 14.7131 0.10692346
6.2890325 14.694345 0.18355073
6.3147926 15.626948 0.17668542
7.4866529 14.35088 -0.11497197
7.2815981 14.552608 -0.060366932
6.4611831 14.641143 0.15791801
6.2292981 14.779563 0.21964411
6.2582035 15.750623 0.21219492
7.3800831 14.37043 -0.078941062
6.686059 14.791209 0.10591846
6.3581934 14.659687 0.19315723
6.1964684 15.013836 0.23630388
7.5461526 14.361108 -0.1178163
7.2992787 14.461663 -0.052057136
6.5300574 14.679644 0.15281734
6.2659669 14.723741 0.22314937
6.2926974 15.684966 0.216234
7.4495363 14.343957 -0.079992615
7.2624354 14.589466 -0.030082304
6.4295449 14.632316 0.19194856
6.2190375 14.834599 0.24809398
6.2393928 15.805939 0.24279724
7.6413984 14.398491 -0.12527098
7.3522758 14.398089 -0.048176594
6.636106 14.755538 0.14284728
6.3265839 14.667748 0.22537047
6.1774015 15.067704 0.26520881
7.5093141 14.35378 -0.081267871
7.285007 14.506996 -0.021399397
6.4985175 14.670567 0.1884378
6.2443285 14.740324 0.25625858
6.2691393 15.720666 0.24981895
7.4117885 14.353621 -0.043681663
7.2160707 14.578522 0.0085199904
6.7344031 14.813301 0.13697632
6.3955832 14.640737 0.22731611
6.2019134 14.897882 0.27897269
7.5930843 14.374609 -0.084571064
7.32759 14.426302 -0.013829781
6.5902972 14.719906 0.18260762
6.2952819 14.666626 0.26123089
7.4517527 14.33806 -0.042287108
7.2489748 14.544229 0.011690284
6.4365087 14.624338 0.22811438
6.1981697 14.738675 0.29158491
6.2262478 15.757193 0.28388295
7.6748352 14.396022 -0.081988521
7.3793879 14.373824 -0.003308164
6.6802688 14.769627 0.18288927
6.356833 14.631154 0.26902205
6.1763105 14.933773 0.31710255
7.538363 14.340589 -0.036403641
7.306602 14.472499 0.025319304
6.5421185 14.683167 0.22890617
6.2729573 14.702638 0.30058348
6.2872796 15.673135 0.29681072
