# .PCD v0.7 - Point Cloud Data file format
VERSION 0.7
FIELDS x y z
SIZE 4 4 4
TYPE F F F
COUNT 1 1 1
WIDTH 202
HEIGHT 1
VIEWPOINT 0 0 0 1 0 0 0
POINTS 202
DATA ascii
-0.98712504 21.559885 1.1715727
-0.77141118 21.601479 1.1214114
-0.93912345 21.500515 1.1640351
-0.69659835 21.582577 1.1105529
-1.0758966 21.53672 1.2038833
-0.85411298 21.610403 1.1587114
-1.0125505 21.527407 1.2107753
-0.79435289 21.551817 1.1659584
-1.1599742 21.601433 1.2578639
-0.97186977 21.389433 1.2138023
-0.74209762 21.552298 1.1635672
-1.1235309 21.472839 1.2574166
-0.88975638 21.44945 1.2044733
-1.2409369 21.604713 1.2951186
-0.66059256 21.622736 1.1466155
-1.0626035 21.384634 1.2433797
-0.99615896 21.336695 1.2345154
-1.3504863 21.448641 1.3254299
-0.76460755 21.501795 1.1829996
-1.1358989 21.488174 1.2761155
-0.9454025 21.387043 1.2280833
-1.2932855 21.568684 1.3185275
-0.71049762 21.502287 1.1786386
-1.0964313 21.359489 1.2734126
-1.4526556 21.458261 1.3646313
-0.85142547 21.517788 1.2117801
-1.2108526 21.610142 1.3037837
-0.63033164 21.623308 1.1603465
-1.0362691 21.321732 1.2580595
-1.3889704 21.450243 1.3489971
-0.77800339 21.488297 1.2058798
-1.1483414 21.471189 1.2992005
-1.4989691 21.656509 1.390653
-0.95516622 21.371464 1.2511216
-1.3028895 21.559795 1.3419591
-0.71498889 21.477737 1.2000557
-1.1007658 21.311518 1.2952665
-1.445976 21.526527 1.3860018
-0.85440576 21.47928 1.2415522
-1.2124598 21.57839 1.3338848
-0.62890261 21.566051 1.1873726
-1.0287914 21.280838 1.2846664
-1.376047 21.466059 1.3755834
-0.80555993 21.428926 1.228042
-1.1714331 21.43854 1.3211373
-1.5154079 21.710651 1.4124849
-0.94488686 21.340765 1.2628391
-1.2895948 21.566078 1.3536139
-0.73074067 21.380848 1.2057642
-1.1101769 21.241121 1.3004397
-1.4404147 21.642561 1.3898762
-0.88739079 21.401836 1.2495738
-1.24017 21.547533 1.3413565
-0.64946365 21.431143 1.203409
-1.0344646 21.241657 1.2991101
-1.3742602 21.523403 1.3895954
-0.82030779 21.392416 1.2529575
-1.1781563 21.478212 1.3455447
-0.58090818 21.611107 1.2046127
-0.98698622 21.232656 1.3033504
-1.3242915 21.54413 1.3938634
-0.77234989 21.36363 1.2561982
-1.1453848 21.269917 1.3503852
-1.4730855 21.757858 1.4408811
-0.91213608 21.353321 1.3040134
-1.2626009 21.525261 1.3961598
-0.71537346 21.335596 1.2573698
-1.0912788 21.201782 1.3519294
-1.4236178 21.60964 1.4426582
-0.84504658 21.375128 1.3042865
-1.2037716 21.44721 1.3971429
-0.80577767 21.336796 1.307736
-1.1700994 21.328903 1.4007441
-0.54212606 21.647694 1.2577889
-0.94548738 21.254988 1.355474
-1.2880957 21.532902 1.4465104
-1.6619457 21.375416 1.53977
-0.74171644 21.328606 1.309666
-1.1136564 21.220835 1.4030286
-1.4488544 21.645237 1.4940306
-1.8235188 21.474421 1.5872586
-0.67017114 21.359867 1.3089658
-1.0479093 21.182213 1.4028903
-1.386757 21.536581 1.4938141
-1.7573278 21.415478 1.5866452
-0.82309926 21.377466 1.3530923
-1.1877412 21.365948 1.4458519
-0.61144221 21.540998 1.3041989
-1.0028204 21.223846 1.3999232
-1.3455033 21.528198 1.4911466
-1.7179799 21.356968 1.5839128
-0.7657389 21.309484 1.353448
-1.1325669 21.247812 1.446223
-1.8448005 21.504246 1.6311297
-0.71347988 21.330568 1.3489879
-1.0852767 21.198994 1.4423368
-1.4299402 21.500027 1.5341415
-1.7961183 21.445189 1.6270106
-0.84424829 21.346041 1.3914793
-1.2031081 21.410748 1.4840857
-0.63491303 21.471804 1.3383163
-1.0176572 21.210602 1.43328
-1.3630342 21.50157 1.5253066
-1.7321151 21.356676 1.6181667
-0.9422459 21.231602 1.4316269
-1.2879112 21.522453 1.5242143
-1.6587604 21.327463 1.6174524
-0.73124039 21.299034 1.3816729
-1.0978135 21.213684 1.475293
-1.4409271 21.61124 1.5686004
-1.8109312 21.432901 1.6620009
-0.89025527 21.322481 1.4241132
-1.2468482 21.423599 1.5175018
-1.6087438 21.448366 1.6113666
-0.65418464 21.390057 1.3703264
-1.0286027 21.194979 1.4649348
-1.3746973 21.512562 1.5580654
-1.7427163 21.344149 1.6513259
-0.971246 21.236542 1.4520879
-1.3201127 21.504177 1.5452746
-1.6881402 21.325731 1.638628
-0.90390468 21.277815 1.4438038
-1.2579088 21.43552 1.5372279
-1.6218469 21.376945 1.6309918
-0.82529151 21.298246 1.4444009
-1.1839684 21.345984 1.5382521
-0.97981429 21.228197 1.4901384
-1.3324213 21.432543 1.5842093
-1.6961217 21.330608 1.6779845
-0.77691644 21.258478 1.4401278
-1.135655 21.286209 1.5341389
-0.8983627 21.237986 1.4807117
-1.2513072 21.432482 1.5750718
-1.6146443 21.350679 1.6693465
-0.67367178 21.347836 1.4250691
-1.0398725 21.226 1.5198855
-1.3942058 21.407423 1.6145915
-1.7558364 21.382458 1.7091705
-0.83133954 21.277887 1.4661524
-1.1890627 21.342674 1.5606513
-0.95415974 21.266897 1.4982048
-1.3090991 21.448502 1.5931658
-1.6724033 21.283737 1.687204
-0.75141954 21.278721 1.4439306
-1.1100209 21.313696 1.5386428
-0.89307177 21.27705 1.4839635
-1.2494922 21.398844 1.5789717
-1.6110679 21.344223 1.67384
-0.66069752 21.368567 1.4306903
-1.0259923 21.243851 1.5261207
-1.3817766 21.422464 1.6215675
-1.7432128 21.334648 1.7162881
-0.80650115 21.306667 1.4746983
-1.164854 21.368664 1.5699298
-1.5243477 21.514193 1.6661493
-0.96202964 21.26318 1.5188364
-1.3175484 21.471992 1.6145968
-1.6798093 21.244377 1.7085822
-0.71909088 21.315687 1.4669002
-1.0793244 21.307938 1.5622137
-1.4373453 21.493675 1.6585027
-0.85837311 21.29228 1.5081203
-1.2167367 21.351397 1.6035458
-1.5769104 21.384052 1.699241
-0.6480267 21.415184 1.4543556
-1.0138168 21.257761 1.550106
-1.3713526 21.393702 1.6459143
-0.76989847 21.342709 1.483927
-1.1299756 21.352137 1.579471
-1.4901091 21.415058 1.6754007
-0.92700487 21.298769 1.5200644
-1.2849423 21.455019 1.6159842
-0.70869452 21.313463 1.4633595
-1.0680579 21.333054 1.558847
-1.4277782 21.426155 1.6548737
-0.86352599 21.339075 1.5090605
-1.2233469 21.365448 1.6047361
-0.62470281 21.403082 1.457657
-0.98776323 21.302835 1.5536028
-1.3469887 21.386021 1.6496013
-0.78203481 21.388575 1.5043349
-1.1432227 21.355082 1.6002498
-0.9087826 21.332706 1.546778
-1.2684518 21.426001 1.6430722
-0.69444603 21.398588 1.4942169
-1.0558321 21.355221 1.5902641
-0.84998816 21.392761 1.5408065
-1.2107654 21.426144 1.6370826
-0.60893899 21.438278 1.4925126
-0.97124887 21.374983 1.5885931
-0.77055418 21.432495 1.5393641
-1.1321414 21.405943 1.635401
-0.68657357 21.422544 1.5347745
-1.0479392 21.40604 1.6307967
-0.837138 21.455244 1.578811
-0.63527864 21.472963 1.525094
-0.99753934 21.446531 1.621317
-0.776021 21.475613 1.5706744
-0.9095521 21.387335 1.6042556
-0.70152086 21.516632 1.5516115
-0.82899868 21.458178 1.5924437
-0.62830085 21.437267 1.5417204
