# .PCD v0.7 - Point Cloud Data file format
VERSION 0.7
FIELDS x y z
SIZE 4 4 4
TYPE F F F
COUNT 1 1 1
WIDTH 1421
HEIGHT 1
VIEWPOINT 0 0 0 1 0 0 0
POINTS 1421
DATA ascii
-0.82380605 -0.33873796 -0.048276268
-0.91764122 -0.57920671 -0.0501284
-0.95144778 -0.5176509 -0.045339298
-0.91809255 -0.4584713 -0.048297156
-1.0393145 -0.87978125 -0.044097416
-1.0695167 -0.81945676 -0.03917129
-0.97895068 -0.57790309 -0.045617461
-1.1188095 -1.4438188 -0.048646703
-1.1801602 -1.5767186 -0.056861542
-1.1415201 -1.5091677 -0.051636823
-1.0170075 -1.6281769 -0.059675191
-1.1450125 -1.3828468 -0.049072366
-1.2440765 -1.3250673 -0.0579325
-1.2106966 -1.2641523 -0.056068584
-1.1842189 -1.2001472 -0.050647944
-1.1732874 -1.7793015 -0.071637765
-1.1447064 -1.8419584 -0.068469234
-1.1517313 -1.7111566 -0.065065563
-1.0548122 -2.1046207 -0.072133385
-1.0070274 -2.1652033 -0.073267467
-0.84391016 -2.3095126 -0.094898514
-0.79246378 -2.3096843 -0.095468447
-0.99915361 -2.3017125 -0.076931432
-0.96281701 -2.3743036 -0.084684744
-0.73966038 -2.7443619 -0.11364504
2.113193 -3.4405746 -0.15761775
4.5476432 -1.7152056 -0.12738146
4.4926248 -1.7118011 -0.12433048
4.4322233 -1.902035 -0.12932801
4.2769904 -1.9133494 -0.12691079
4.3707676 -1.9052362 -0.13043509
4.3257451 -2.3094251 -0.14376225
4.3506241 -2.2992291 -0.14352088
4.4058552 -1.4677342 -0.11418586
4.3669214 -1.4043748 -0.10752148
4.291451 -1.3480617 -0.107948
4.2305245 -1.2864254 -0.10163061
4.1129174 -1.4261466 -0.10956115
4.0876093 -2.6778176 -0.15352167
4.141222 -2.6755939 -0.15947673
3.5688391 -3.0085363 -0.17242743
3.876132 -2.9982374 -0.15881459
3.7941146 -3.0863907 -0.16946709
3.6981981 -3.0816679 -0.17211433
4.0263414 -2.8241506 -0.14948058
3.9700322 -2.8342988 -0.15001357
3.5121121 -3.3069029 -0.17707968
3.4698687 -3.3760588 -0.17380835
2.4582613 -3.4679306 -0.16450998
2.4842188 -3.545846 -0.16792372
3.128906 -3.5019593 -0.18415757
3.0415459 -3.5867944 -0.18882298
2.864327 -3.6690722 -0.18368666
2.9148047 -3.7474909 -0.1894246
2.6457181 -3.6095731 -0.17414157
2.7478626 -3.6823869 -0.17754726
0.31441304 -3.6175904 -0.16346981
0.22169614 -3.7066507 -0.16094412
0.14987899 -3.5417867 -0.15530545
0.59757549 -3.811039 -0.17798275
0.51818472 -3.6411378 -0.17416897
0.36417228 -3.5407901 -0.16384104
0.78277719 -4.0480189 -0.18363602
0.64156646 -3.8856947 -0.17489992
0.89707053 -4.1375847 -0.19723439
1.0593184 -4.1566935 -0.20898247
1.021685 -4.2349243 -0.20818378
2.1629171 -3.5072565 -0.15991169
2.1055164 -3.6888001 -0.16628221
2.033828 -3.8211596 -0.17208755
2.0487723 -3.7893903 -0.16398425
1.9564352 -4.0127616 -0.18859923
1.8473958 -4.097271 -0.18246275
1.2693503 -4.2270966 -0.18860285
1.2647911 -4.3404546 -0.19821267
1.4275652 -4.42593 -0.21610898
-0.9316991 0.68437481 -0.032684609
-0.80053961 0.62722069 -0.039020997
-0.89756501 0.62522501 -0.037368428
-1.0488918 0.86470538 -0.020211076
-1.074378 1.3511927 -0.0077245687
-1.033102 1.169085 -0.016473832
-0.94940192 0.50459474 -0.03695425
-0.91179895 0.56509674 -0.038846895
-0.91706938 0.32313785 -0.041102782
-0.85516393 0.32341316 -0.043025076
-0.68862557 -0.27984688 -0.041352857
4.4856043 1.0661188 -0.075362533
4.3913846 0.90474737 -0.075253792
4.421958 1.2374291 -0.069662593
4.274343 0.80069131 -0.072283573
4.2614217 0.74752563 -0.07467439
4.3509293 0.85058272 -0.074217238
4.3384733 0.79772192 -0.076201655
4.0247397 0.87267476 -0.074978016
4.1840587 0.69764501 -0.070569657
4.1092582 0.75620663 -0.069194093
-0.61430573 -2.9039104 -0.1246777
-0.57964808 -2.9734519 -0.12505281
-0.63209635 -3.1329587 -0.13305886
-0.59397 -3.2067325 -0.13384815
-0.2738736 -3.4493625 -0.15153305
-0.44737411 -3.3712854 -0.14632051
-0.40160763 -3.4465168 -0.14820644
-0.31579998 -3.5196793 -0.1497409
-0.081037067 -3.5347874 -0.16108899
-0.22705808 -3.5260122 -0.15285745
-0.20948564 -3.6016033 -0.15429777
-0.71582085 -2.8970575 -0.12121481
-0.9793812 -0.45734423 -0.043819293
-0.94319385 -0.39785197 -0.045489289
-1.0815867 -0.7604655 -0.036995254
-1.1354741 -0.82440776 -0.036233626
-1.1824619 -1.4500244 -0.054563526
-1.2277155 -1.5801057 -0.065192483
-1.2004765 -1.6440936 -0.063695252
-1.2145897 -1.3882306 -0.056953251
-1.1304655 -1.1925795 -0.042525504
-1.2412653 -1.2013053 -0.056799922
-1.2017827 -1.8431258 -0.074691296
-1.2182701 -1.7099162 -0.069134302
-1.1192632 -2.1117058 -0.077917635
-1.0849043 -2.0393865 -0.071697377
-0.96015114 -2.1636279 -0.079948775
-1.0746573 -2.1752295 -0.075891286
-0.98791641 -2.2309396 -0.077088058
-0.81687498 -2.3800147 -0.098535672
-1.0392236 -2.3215344 -0.085815787
-1.0364716 -2.2439458 -0.078160912
-1.0208323 -2.3845873 -0.083605938
-0.97548145 -2.4457958 -0.084212855
-0.80915838 -2.736918 -0.1087525
-0.77720153 -2.812921 -0.11363257
4.6181397 -1.7176744 -0.12726372
4.5116758 -1.6496191 -0.12161012
4.472795 -1.9012457 -0.13063115
4.228106 -1.923362 -0.12813921
4.3657236 -1.9714965 -0.13379267
4.3547583 -2.3731275 -0.14730264
4.3483572 -2.2415578 -0.14425504
4.419867 -2.2993221 -0.14732867
4.4075761 -1.40424 -0.10905717
4.3826098 -1.3449678 -0.10696926
4.3188825 -1.3452836 -0.10510529
4.3003793 -1.2878305 -0.10568071
4.1974874 -1.2906078 -0.099667333
4.2198138 -1.2298983 -0.10014349
4.0626063 -1.4299947 -0.11159366
4.121881 -2.7458234 -0.15852728
3.5366168 -3.0773439 -0.1702878
3.9445679 -2.989939 -0.15745413
3.8602254 -3.0790091 -0.16530745
3.7594571 -3.1553967 -0.17009413
3.6439548 -3.0856123 -0.17692859
4.0856924 -2.8132906 -0.15467471
3.5932591 -3.3074021 -0.18277457
2.3760443 -3.4697022 -0.16128607
2.4377546 -3.5514498 -0.16828895
2.5088413 -3.619714 -0.16829751
3.1991343 -3.4965646 -0.18513942
3.1630392 -3.5791852 -0.18760704
3.0856102 -3.5815301 -0.18622741
3.0670867 -3.6648102 -0.19091576
2.8084216 -3.6705334 -0.17787054
2.8447225 -3.7529852 -0.18532805
2.8772004 -3.8318491 -0.18978852
2.5817907 -3.6138163 -0.17019689
2.6844702 -3.6932249 -0.18029751
0.2953172 -3.7036228 -0.16552097
0.17470399 -3.7120781 -0.16377684
0.085990541 -3.5474253 -0.16268422
0.54958212 -3.817811 -0.18438436
0.4100461 -3.6250119 -0.16795406
0.71744895 -4.0618792 -0.18282552
0.74111032 -3.9618852 -0.17811027
0.93306696 -4.2251091 -0.20119792
0.89326638 -4.2373986 -0.20239474
1.1460438 -4.1675658 -0.20636462
2.215647 -3.5011542 -0.16028492
2.1417265 -3.6753874 -0.16607451
2.1623547 -3.6606989 -0.16247045
2.0907791 -3.8663156 -0.1688623
2.0208609 -4.0082278 -0.18629292
1.9333428 -4.1002917 -0.19172579
1.191523 -4.1561427 -0.19294892
1.2110504 -4.1380348 -0.18240097
1.2449502 -4.3591552 -0.20872842
1.1825445 -4.3608246 -0.21820509
1.3125807 -4.4255781 -0.20197664
1.5032253 -4.4270892 -0.2151181
1.4361057 -4.5056028 -0.21507485
1.3455848 -4.4167781 -0.20362639
-0.94881892 0.62568176 -0.035375826
-1.0371053 0.9239518 -0.019049609
-1.0650759 0.92512983 -0.017023461
-1.0326067 0.803137 -0.021766065
-1.1392629 1.3493891 -0.0047981651
-1.090093 1.1659313 -0.0080820536
-1.0718848 1.1053768 -0.011719709
-0.84984326 0.56571639 -0.040685911
-0.89568102 0.26296228 -0.042987611
4.5337863 1.0604271 -0.075902931
4.5060534 1.1186436 -0.074214526
4.4468484 0.9013266 -0.079030111
4.3854146 1.2447227 -0.070775494
4.4079175 1.29826 -0.069387756
4.3128619 0.74181223 -0.073305801
4.2770681 0.68833965 -0.074103154
4.3958702 0.79281056 -0.077393398
4.2300134 0.69263983 -0.070888199
4.2011561 0.64040381 -0.073909841
4.0495739 0.7551778 -0.069162123
-0.66014212 -2.9736991 -0.12439092
-0.67761177 -3.2074809 -0.13430309
-0.50406051 -3.3695457 -0.1442807
-0.3766658 -3.5265791 -0.15248911
-0.11700329 -3.6103382 -0.16077845
-0.26452786 -3.6091726 -0.15626143
-0.74576205 -2.970031 -0.122936
-0.79417521 -2.885499 -0.11421884
-0.88149601 -0.39862275 -0.047640137
-0.93035191 -0.33744863 -0.043808892
-1.0442157 -0.75784343 -0.041275781
-1.0658293 -0.69875759 -0.038305521
-1.1887454 -0.830935 -0.044431783
-1.1473386 -0.76669258 -0.039821547
-1.1522549 -0.88787723 -0.04045039
-1.2490629 -1.4491194 -0.058585458
-1.2206709 -1.5125785 -0.057357393
-1.1308082 -1.6383668 -0.055842686
-1.1587298 -1.1320587 -0.042477347
-1.218603 -1.1387333 -0.052544251
-1.1674786 -1.9106792 -0.074779339
-1.2665862 -1.7760279 -0.074533112
-1.1670218 -2.1157868 -0.086288355
-1.1445634 -2.1816556 -0.083685935
-1.1547453 -2.0456405 -0.079508089
-1.0758165 -1.9666511 -0.065535121
-0.88737339 -2.3731 -0.091454461
-0.82955372 -2.4507709 -0.10012128
-1.1010904 -2.2512195 -0.083914816
-1.0856299 -2.3920367 -0.08932931
-0.9286409 -2.4442072 -0.090955384
-1.0343417 -2.4598217 -0.088855743
-0.95890391 -2.5124638 -0.087487638
-0.78454697 -2.668534 -0.10991913
-0.83838403 -2.8087437 -0.10856383
4.6043243 -1.7790797 -0.13018849
4.6432161 -1.6580801 -0.12627125
4.5289431 -1.5904697 -0.1214027
4.483283 -1.5894527 -0.12082097
4.4665284 -1.9680159 -0.13462964
4.1767292 -1.9312245 -0.13164598
4.4027581 -1.9691341 -0.13326156
4.3188701 -1.9785103 -0.13381121
4.4111457 -2.3679955 -0.14975646
4.3740697 -2.4377699 -0.15108114
4.3954959 -2.2335422 -0.14427832
4.4815745 -2.2951655 -0.1459682
4.4417744 -2.2337642 -0.14610502
4.3927164 -1.284332 -0.10408239
4.3615179 -1.286257 -0.10499783
4.1396575 -1.2961059 -0.098625243
4.275507 -1.2278134 -0.10254037
4.223 -1.1684375 -0.098437421
4.1482935 -2.8149369 -0.16295734
3.5781977 -3.1551514 -0.17683206
3.9740171 -2.9752052 -0.15280893
3.9160914 -3.0756161 -0.1649877
3.8019214 -3.2341912 -0.1734245
3.73229 -3.2420173 -0.18300179
3.5667667 -3.3815172 -0.18219256
3.5620055 -3.2329564 -0.17892917
2.3333189 -3.4759867 -0.15677293
2.3616726 -3.5532911 -0.16248316
2.4841678 -3.6339939 -0.17394349
3.249943 -3.4930775 -0.18686806
3.2294757 -3.5746579 -0.18940459
3.0231318 -3.6703601 -0.19344354
3.1453192 -3.6630845 -0.19085015
2.7890189 -3.7597287 -0.18241242
2.8381946 -3.8430202 -0.18832895
2.9596791 -3.8358271 -0.19785459
2.6400704 -3.6974058 -0.17833833
2.6769586 -3.7816303 -0.18494631
0.29450896 -3.7945786 -0.1708523
0.11934787 -3.7224565 -0.17317045
0.028763449 -3.5497799 -0.16694924
0.45032647 -3.8057218 -0.18023762
0.39764425 -3.7157819 -0.17446552
0.68446672 -4.0748868 -0.18792622
0.71300352 -4.1610475 -0.19063734
0.672068 -3.9707196 -0.1780531
0.83029383 -4.2442923 -0.19788755
2.2771466 -3.49227 -0.15984589
2.2477918 -3.5667574 -0.1580902
2.2237835 -3.6589172 -0.1650544
2.1098177 -3.8493104 -0.17005122
2.0676928 -3.8933678 -0.17122366
2.1547751 -3.8400583 -0.17207
2.0525143 -3.9938736 -0.17927095
2.0849707 -3.9707246 -0.17553417
1.994759 -4.1043768 -0.19559273
1.0959634 -4.3497796 -0.22094394
1.5911955 -4.4477882 -0.21878919
1.3856139 -4.5037603 -0.21147607
1.4167629 -4.595211 -0.21656854
-1.0545207 0.98581213 -0.017261844
-1.0702108 0.80281073 -0.017597156
-1.0453438 0.74368411 -0.022695104
-1.1460159 1.2903913 -0.010933008
-1.1544454 1.1652803 -0.010837673
-1.1271964 1.1048045 -0.010916069
-1.0717269 1.0463582 -0.013844504
-0.87068129 0.20232649 -0.041305043
-0.92280859 0.20252244 -0.041530516
4.5237274 1.008346 -0.079802901
4.5902476 1.0533398 -0.073773347
4.5246677 1.1722317 -0.072609305
4.422132 0.84647989 -0.076944306
4.4287353 1.3536408 -0.070490688
4.3544493 0.73860043 -0.076132804
4.3315392 0.68446326 -0.075386137
4.2535467 0.63398015 -0.073767759
4.4256377 0.73467624 -0.078811228
4.1593509 0.6411733 -0.069336019
4.1849942 0.58472455 -0.071999133
4.0094581 0.75575352 -0.072383486
-0.74660832 -3.1990895 -0.12933086
-0.71050549 -3.281765 -0.13530444
-0.56200123 -3.3728735 -0.14355297
-0.50557721 -3.4568622 -0.14928125
-0.43641362 -3.5305281 -0.1513932
-0.34718114 -3.6026502 -0.15308923
-0.029966624 -3.6272459 -0.1693202
-0.16209678 -3.6908286 -0.16152409
-0.2993747 -3.684468 -0.15617961
-0.81589264 -2.9618158 -0.11575746
-0.77324176 -3.0394161 -0.12109573
-0.99162132 -0.33649084 -0.039370991
-0.94672573 -0.27753285 -0.042986248
-1.0788867 -0.6397385 -0.035903055
-1.2457784 -0.83208895 -0.050552618
-1.1317037 -0.70353156 -0.035369746
-1.1413338 -0.94537336 -0.036637247
-1.1932148 -1.0751563 -0.046886504
-1.1071061 -1.9019408 -0.06483034
-1.1878004 -1.9774649 -0.079706155
-1.3030987 -1.8397 -0.074025437
-1.3504362 -1.7711835 -0.065291882
-1.1581956 -2.2523875 -0.090189874
-1.1307175 -1.9762954 -0.073466614
-0.76894575 -2.4542475 -0.10285117
-0.87429023 -2.5146563 -0.096378982
-1.1277139 -2.3218253 -0.089402005
-1.1427417 -2.3932071 -0.095622793
-1.1043891 -2.4665949 -0.096619718
-1.0171065 -2.5230825 -0.086378761
-0.97296566 -2.5844882 -0.086716637
-0.75744396 -2.5968993 -0.1075082
-0.86398065 -2.6574128 -0.10069898
-0.91381621 -2.8099649 -0.10169009
4.6606688 -1.7833488 -0.13188134
4.5640068 -1.8411144 -0.13275163
4.5868092 -1.6538242 -0.124523
4.6089258 -1.5954856 -0.12381855
4.501194 -1.5278746 -0.11781703
4.5322857 -1.967618 -0.13698153
4.4542499 -2.0328145 -0.13633758
4.1168742 -1.9329346 -0.13149481
4.3927183 -2.0363348 -0.1375268
4.3233304 -2.0359137 -0.13365756
4.2988424 -2.045115 -0.13398027
4.4574227 -2.3680594 -0.15153445
4.4251094 -2.4307766 -0.15004435
4.3217716 -2.438091 -0.1440842
4.4121361 -2.1688097 -0.14396927
4.5221224 -2.29389 -0.14709114
4.4964347 -2.2291102 -0.14483523
4.3666191 -1.2253784 -0.10169166
4.0888295 -1.302245 -0.10196443
4.3028936 -1.225526 -0.099730313
4.2834187 -1.1682355 -0.10001497
4.1805358 -1.1705 -0.093991168
4.2113066 -1.1119905 -0.096687347
4.1275434 -2.8857079 -0.1616748
4.0393529 -2.9687676 -0.15457293
4.0203524 -2.9037178 -0.15307535
3.9208038 -3.1618068 -0.17231733
3.8856249 -3.2352045 -0.17384049
3.8006065 -3.321048 -0.1828181
3.6604939 -3.2373919 -0.1832377
3.5153756 -3.4559703 -0.17995489
2.2959278 -3.5605822 -0.15943697
2.4913168 -3.7033689 -0.1725619
2.4018512 -3.6357718 -0.17065565
3.3111389 -3.4914863 -0.18736972
3.2947831 -3.5731132 -0.1909961
3.2156494 -3.657531 -0.19180875
2.7450528 -3.7764957 -0.1855664
2.7689376 -3.8503461 -0.18570881
2.8557277 -3.916647 -0.19099131
2.92593 -3.9109981 -0.19509418
3.0444198 -3.8381424 -0.20161197
2.5681069 -3.70209 -0.17477466
2.6044526 -3.7812564 -0.17878065
2.6523857 -3.8609657 -0.18432507
0.35475612 -3.7980011 -0.17570305
0.31661096 -3.875716 -0.1732209
0.044767588 -3.7156653 -0.17331679
0.41868457 -3.8883297 -0.1822034
0.65733492 -4.1756454 -0.19788094
0.7821669 -4.1520362 -0.19075465
0.60813713 -3.9801989 -0.18329239
0.74781954 -4.2484536 -0.19294262
0.80211806 -4.3346906 -0.19843858
2.2083266 -3.5834947 -0.16292723
2.2853799 -3.6497283 -0.16465418
2.1841681 -3.82955 -0.17071122
2.0762749 -4.0616207 -0.17593727
2.1360552 -4.0258889 -0.17935675
1.9710002 -4.1879196 -0.19494218
1.0483432 -4.3488274 -0.22037444
1.1448425 -4.2690554 -0.21820173
1.6395491 -4.5328064 -0.21433596
1.6405638 -4.3583488 -0.21155733
1.3266608 -4.5805931 -0.20209709
1.3894423 -4.6841631 -0.21554807
-1.1098464 0.98489118 -0.016452698
-1.0677522 0.68192661 -0.019839793
-1.1273583 1.2279081 -0.0091488445
-1.1457753 1.0438495 -0.014483787
-1.0340351 1.0463369 -0.018002875
-0.90242183 0.14238662 -0.043202244
4.4928894 0.95417619 -0.078210957
4.5505514 0.95013064 -0.081212737
4.602529 1.0044028 -0.083042383
4.6491241 1.0517631 -0.075673811
4.4764042 1.1780863 -0.072007097
4.5055008 1.2324469 -0.073133141
4.4711113 1.4062946 -0.068730921
4.3145518 0.62977844 -0.074791878
4.2405243 0.58116865 -0.074783236
4.398447 0.68097043 -0.079027928
4.4442616 0.67647898 -0.080207758
4.1015816 0.64160627 -0.068405926
4.1914935 0.52682519 -0.072568104
-0.81874371 -3.2032869 -0.12622559
-0.72653097 -3.1250942 -0.12946934
-0.77157718 -3.2771101 -0.1301212
-0.70573437 -3.3692012 -0.14090814
-0.64572018 -3.3736367 -0.14387396
-0.54456395 -3.2854671 -0.13783258
-0.57734853 -3.4615088 -0.15023921
-0.49306768 -3.5287867 -0.14929642
-0.38354421 -3.6108346 -0.15499136
-0.047512967 -3.7092218 -0.17159855
-0.21070793 -3.6909676 -0.15926351
-0.1689122 -3.781163 -0.16645446
-0.35165384 -3.6962676 -0.16094187
-0.90030313 -2.9591639 -0.10678587
-0.70407021 -3.0474975 -0.126039
-0.85419101 -3.0394917 -0.11599487
-1.057428 -0.33810854 -0.035132825
-0.92518657 -0.21765073 -0.043251891
-0.97667402 -0.21719648 -0.041034959
-1.0512315 -0.6363622 -0.037989564
-1.064213 -0.57819057 -0.036979742
-1.2264419 -0.77010942 -0.045603633
-1.2216891 -0.89257652 -0.048386946
-1.1542212 -0.64468551 -0.036565755
-1.1947553 -0.95224226 -0.044810053
-1.1592607 -1.0091355 -0.040616389
-1.2502582 -1.0763133 -0.053024981
-1.1299922 -1.0694761 -0.040898614
-1.3445039 -1.9017298 -0.068408675
-1.3290471 -1.7044052 -0.066356108
-1.4010506 -1.8363374 -0.058150008
-0.79470885 -2.5252864 -0.10558908
-0.91699153 -2.5863745 -0.09556593
-1.0820813 -2.5306993 -0.092069753
-1.120865 -2.538686 -0.10254937
-1.0229609 -2.602499 -0.093395121
-0.82710057 -2.5897849 -0.10264347
-0.9394179 -2.6586208 -0.093871564
-0.98146594 -2.8175435 -0.098421164
-0.92185682 -2.8871825 -0.10231816
4.6436872 -1.8461615 -0.13508837
4.6961789 -1.7217543 -0.12786181
4.5183105 -1.8404289 -0.13220781
4.5537405 -1.904058 -0.1348605
4.6328521 -1.5363177 -0.12256527
4.5763755 -1.532077 -0.120761
4.526783 -1.4713869 -0.11984567
4.4717231 -1.4679829 -0.11673278
4.5780044 -1.9681405 -0.13750613
4.5040359 -2.0348377 -0.14003983
4.3864608 -2.1034513 -0.14057513
4.2313542 -2.0497062 -0.13030569
4.5030627 -2.359695 -0.1477506
4.2722936 -2.4501016 -0.14512224
4.4737549 -2.164983 -0.14269711
4.423543 -2.1007705 -0.1400101
4.3852115 -1.1672008 -0.10107165
4.3445072 -1.1669908 -0.099414691
4.0480733 -1.3078742 -0.10641088
4.266942 -1.1102493 -0.099090539
4.1417999 -1.1792079 -0.097952031
4.2133932 -1.051132 -0.094708167
4.2038822 -2.8842204 -0.16509219
4.098855 -2.957582 -0.159815
3.9806252 -3.1491261 -0.16868287
3.9328327 -3.2275329 -0.17121078
3.8240428 -3.392103 -0.18116261
3.7542539 -3.4000854 -0.19075929
3.4476354 -3.4544296 -0.17370301
3.5059302 -3.5439291 -0.18533419
2.4532757 -3.71383 -0.17511241
2.3504596 -3.6376076 -0.16385795
2.3771813 -3.7156713 -0.16920601
3.3684778 -3.4849391 -0.1824221
3.3370442 -3.5709424 -0.18988959
3.3192241 -3.6474531 -0.19177544
3.2836041 -3.6632581 -0.19800799
2.7053044 -3.8614855 -0.18846662
2.8083341 -3.9284701 -0.19021203
3.0969844 -3.8372796 -0.20126994
3.0731905 -3.7583616 -0.19963259
2.5313454 -3.7873104 -0.17690064
2.5718598 -3.8609509 -0.17856015
0.24292143 -3.8787591 -0.1686109
0.28822443 -3.9533787 -0.17203678
0.0015630721 -3.8030663 -0.17938662
0.35691646 -3.9617593 -0.17892671
0.46094885 -3.9745839 -0.18553235
0.609056 -4.1827364 -0.20425192
0.71462542 -4.2617784 -0.19800334
0.55147338 -3.9823337 -0.18763836
0.74120206 -4.3489633 -0.20027125
2.302752 -3.7184172 -0.16391034
2.2371063 -3.8228276 -0.17119209
2.1458807 -3.7673211 -0.17112085
2.1251831 -4.0484328 -0.18006344
2.1727145 -4.0112596 -0.17935753
2.1938493 -3.995364 -0.17596556
1.8890244 -4.1844411 -0.18793283
2.0607321 -4.198245 -0.19881141
0.95077783 -4.3402443 -0.21319151
1.0814762 -4.4442444 -0.22575332
1.6901172 -4.5329089 -0.21047086
1.588253 -4.6229806 -0.22113962
1.6911658 -4.3584433 -0.20769833
1.7239971 -4.263226 -0.20110641
1.3182381 -4.6056433 -0.20634288
1.2439117 -4.533915 -0.21145032
1.4562913 -4.6968012 -0.22315674
1.3942181 -4.7599993 -0.21420483
-1.010752 0.68441224 -0.028330013
-1.0438728 0.62278062 -0.024713349
-1.1323112 0.67988217 -0.02263343
-1.1885312 1.2255316 -0.015437421
-1.2151229 1.0418992 -0.022558514
-0.93059766 0.082188405 -0.041493073
4.5299644 0.89633161 -0.082375526
4.6291847 0.99736196 -0.077518523
4.6260238 0.94634902 -0.083977848
4.621201 1.1089159 -0.074687392
4.5231018 1.286025 -0.071303077
4.528985 1.4022934 -0.071951233
4.3656874 0.62773502 -0.080071233
4.3322892 0.5725885 -0.076582707
4.2682481 0.57520324 -0.072901241
4.4272442 0.62299508 -0.080174007
4.0611534 0.64240736 -0.073398277
4.0114164 0.64163864 -0.074217439
4.1496606 0.52742237 -0.068019345
4.1936555 0.47272697 -0.075433351
-0.88327539 -3.1966786 -0.11522966
-0.85584372 -3.2741547 -0.12109246
-0.78764099 -3.1205988 -0.12432051
-0.73246133 -3.4482143 -0.14129069
-0.67143476 -3.4530306 -0.14652297
-0.60740423 -3.2941275 -0.14100191
-0.55108148 -3.5322773 -0.14842714
-0.085213602 -3.7855325 -0.17091279
-0.24992506 -3.7750478 -0.16227956
-0.18932016 -3.8623221 -0.16691843
-0.41147989 -3.7003748 -0.15978688
-0.36037946 -3.7815213 -0.16303399
-0.96809828 -2.9669101 -0.10348491
-0.88407552 -2.8817675 -0.10709304
-0.90097553 -3.0411098 -0.10911629
-0.87197816 -3.1178024 -0.11531251
-1.0423154 -0.39669046 -0.036587164
-1.0360509 -0.27711442 -0.036292482
-1.0831895 -0.27862763 -0.029880298
-0.95231473 -0.15746823 -0.04002605
-1.0879878 -0.51840907 -0.032177228
-1.204237 -0.70766377 -0.039253108
-1.2612635 -0.70881569 -0.045357414
-1.2517917 -0.95339727 -0.050938673
-1.1300027 -0.58279502 -0.03404659
-1.1927063 -0.58777952 -0.040119428
-1.2383764 -1.0125389 -0.046373539
-1.3963821 -1.9671018 -0.060996253
-1.4304811 -1.9023954 -0.054812741
-1.3032972 -1.6388342 -0.06442602
-1.4760771 -1.835672 -0.04657004
-1.4458537 -1.7695237 -0.049592573
-1.1022258 -2.6059513 -0.099062368
-1.0069289 -2.666018 -0.090644814
-0.95495135 -2.731312 -0.09277793
-0.99622267 -2.7536237 -0.10145807
-1.0468134 -2.8254993 -0.10404539
4.619494 -1.905471 -0.13524079
4.6757784 -1.9097608 -0.13687801
4.7501926 -1.724234 -0.12705408
4.7173615 -1.6619408 -0.12569915
4.5975013 -1.4741734 -0.11979151
4.5637369 -1.4112287 -0.11642218
4.4885077 -1.407029 -0.11344902
4.5757508 -2.0346894 -0.14177419
4.4873257 -2.0994971 -0.14127906
4.3302665 -2.1079171 -0.13813789
4.1890759 -2.0608664 -0.13627078
4.5687604 -2.35882 -0.14994588
4.2112784 -2.4558389 -0.14637339
4.1785522 -2.4679322 -0.15368466
4.5051336 -2.1607199 -0.14143994
4.4239888 -1.109225 -0.10106943
4.3484888 -1.1067905 -0.095858924
4.2942896 -1.1084749 -0.096319132
4.2738733 -1.0512772 -0.096315622
4.0910687 -1.1850085 -0.10124946
4.180542 -1.0546187 -0.092768081
4.2007208 -0.99477965 -0.0926985
4.2639041 -2.8825243 -0.16469714
4.161459 -2.9593759 -0.16807194
4.001543 -3.1297002 -0.16178702
4.0582075 -3.118916 -0.16122858
3.9357729 -3.3148212 -0.17812002
3.9077086 -3.3932581 -0.18155219
3.6738715 -3.3907187 -0.18875578
3.4076238 -3.4743359 -0.17718817
3.4695706 -3.5557485 -0.18434855
3.4905543 -3.6279545 -0.18700412
3.4056997 -3.5667629 -0.18625803
3.3852344 -3.6453021 -0.18897462
3.3096473 -3.7346921 -0.19723043
2.679086 -3.9411378 -0.1883274
2.7472384 -3.9358466 -0.1889006
3.1751976 -3.8355558 -0.20111452
3.1173217 -3.7529395 -0.19702026
2.4894261 -3.7924974 -0.17817527
2.5120325 -3.8719332 -0.1807439
0.20439972 -3.889075 -0.17346556
-0.026410492 -3.881202 -0.17923552
0.32565692 -4.0448351 -0.17807561
0.42746913 -4.0579052 -0.1870859
0.51020008 -4.1697502 -0.20011176
0.68525714 -4.3638701 -0.20748298
2.2716014 -3.7341692 -0.16684279
2.2988052 -3.8133404 -0.170836
2.2147322 -3.7421026 -0.16729403
2.2384689 -3.9834006 -0.17436782
1.8560842 -4.2012796 -0.18623057
2.0674217 -4.1684227 -0.18558767
2.1063178 -4.2466087 -0.18601291
2.0918586 -4.1395092 -0.17990136
0.92800969 -4.4312878 -0.21379086
0.99302244 -4.434145 -0.21871185
1.1623402 -4.4535155 -0.22554953
1.04747 -4.5235844 -0.22328682
1.7587426 -4.5262718 -0.20553412
1.7416099 -4.4471221 -0.20837449
1.5170866 -4.6123371 -0.22159261
1.6347486 -4.7085671 -0.21625485
1.7679809 -4.3570452 -0.20478171
1.7578603 -4.2450848 -0.19235927
1.7959193 -4.3214059 -0.19061215
1.2677715 -4.6954727 -0.20486596
1.2475168 -4.5041318 -0.19697435
1.1980407 -4.5461998 -0.2250497
1.4861193 -4.77209 -0.21714222
1.3569138 -4.8439374 -0.21078238
-1.0200981 0.56267631 -0.027964929
-1.1089996 0.61991417 -0.021776244
-1.1298426 0.73885906 -0.015480126
-1.2454996 1.2243742 -0.021405999
-1.1981003 1.1006799 -0.015076717
-1.1905259 0.9793458 -0.018470535
-0.86875027 0.082117692 -0.043492317
-0.9112215 0.02212943 -0.042950895
4.5462899 0.83691019 -0.08096987
4.4982619 0.84228218 -0.080552705
4.6753221 0.94327885 -0.083289854
4.5991654 0.8909775 -0.082974702
4.584888 1.1147131 -0.077558599
4.6496449 1.1650634 -0.075121298
4.4747548 1.2920499 -0.070633553
4.5029645 1.3465571 -0.071523599
4.3239717 0.51871532 -0.078302391
4.3461361 0.51422781 -0.075919777
4.2630067 0.522578 -0.077383913
4.3991194 0.56927514 -0.08015994
4.4448977 0.56495672 -0.081300698
4.1112332 0.52916497 -0.072088607
4.2395005 0.46877351 -0.075670972
4.1991987 0.41509175 -0.075742237
-0.93477124 -3.2173197 -0.12163225
-0.90624648 -3.2906556 -0.12174805
-0.79910314 -3.4538326 -0.13624361
-0.70351779 -3.524019 -0.14359751
-0.62614572 -3.5374804 -0.15064666
-0.31528518 -3.7776852 -0.16321346
-0.26933506 -3.8604169 -0.16588421
-0.1407422 -3.8621845 -0.16921979
-0.45944411 -3.703208 -0.15964369
-0.33033708 -3.8679297 -0.16859294
-1.0246547 -2.9789388 -0.1111201
-0.99962819 -2.8950953 -0.10270352
-0.97892576 -3.0491984 -0.10947017
-0.93100327 -3.1297669 -0.11399805
-1.0894393 -0.39819998 -0.030168591
-1.0646645 -0.45780203 -0.035194866
-1.0619919 -0.21799313 -0.032436784
-0.98327261 -0.097188301 -0.037863214
-1.1437488 -0.52469563 -0.037185717
-1.0311533 -0.51764733 -0.040793065
-1.2236035 -0.64904326 -0.044525862
-1.2497275 -0.58893782 -0.046219535
-1.2228401 -0.52812588 -0.04298893
-1.4432452 -1.9745333 -0.055709518
-1.4176131 -2.036365 -0.059495129
-1.3670392 -1.5683922 -0.055995643
-1.5257187 -1.8459252 -0.049486812
-1.5233024 -1.7887518 -0.053971294
-1.4365222 -1.6991309 -0.048407502
-1.1201096 -2.678546 -0.10470064
-1.0538665 -2.6809354 -0.10044471
-0.90813798 -2.7297158 -0.099569701
-1.0949134 -2.8304176 -0.11245544
-1.0699137 -2.9023716 -0.11040927
4.7405195 -1.9108118 -0.1335189
4.657536 -1.9731987 -0.13980135
4.7347493 -1.7872286 -0.13115458
4.7663445 -1.6611356 -0.12335286
4.6963801 -1.6019671 -0.1270337
4.6202736 -1.4154487 -0.11828112
4.5649681 -1.3496556 -0.11015104
4.4941406 -1.3467143 -0.11017901
4.4579692 -1.3474251 -0.11207271
4.5987935 -2.0993075 -0.14409183
4.5438523 -2.0958793 -0.14113104
4.3336463 -2.1654232 -0.13769709
4.1384373 -2.0655408 -0.13861717
4.6327353 -2.3656528 -0.15527175
4.5939436 -2.2934155 -0.14875439
4.4696021 -1.1109076 -0.10173334
4.4565706 -1.0535171 -0.10203668
4.4566355 -1.1681808 -0.10301813
4.3349123 -1.050361 -0.095804609
4.2563148 -0.99338627 -0.095107108
4.0313482 -1.1867365 -0.100673
4.1228065 -1.059428 -0.091770791
4.2112947 -0.93597001 -0.092962809
4.3252087 -2.8762891 -0.16331151
4.3752251 -2.8628037 -0.16245437
4.1392536 -3.0307543 -0.16644123
4.0488977 -3.2003524 -0.16407561
4.1354251 -3.1157849 -0.17115131
4.0229125 -3.0451369 -0.15549694
3.9871278 -3.2974563 -0.17223917
3.9550748 -3.3854303 -0.17891261
3.6137571 -3.4656956 -0.19019215
3.433109 -3.6390891 -0.18588854
3.5582697 -3.6296282 -0.19330165
3.2528579 -3.7411518 -0.1978758
3.3689847 -3.741915 -0.20052603
2.6065857 -3.9407549 -0.18216638
2.7779393 -4.0151811 -0.19082047
3.245641 -3.8298411 -0.20205413
3.1975689 -3.9094944 -0.20145856
3.1863403 -3.745832 -0.19607762
2.4155207 -3.7990632 -0.17700581
2.4653029 -3.8778522 -0.18111193
0.12313202 -3.8855741 -0.176724
-0.065829769 -3.9581592 -0.17817672
0.065794535 -3.8879535 -0.18093389
0.24341267 -4.0430017 -0.17142758
0.39786807 -4.1515317 -0.19145316
0.49145553 -4.2641821 -0.20521829
0.62010163 -4.3609262 -0.20983438
0.73222411 -4.4458318 -0.20516139
2.3726439 -3.8056843 -0.17228983
2.323185 -3.8873107 -0.17189331
2.3087034 -3.9785552 -0.17618859
1.8768164 -4.2833266 -0.19251405
2.138741 -4.222806 -0.18616001
2.1499903 -4.1995101 -0.18565996
0.9417026 -4.5094833 -0.21409602
0.84825379 -4.4280181 -0.20514616
1.1116022 -4.5349908 -0.22790855
0.99853563 -4.6147966 -0.22317031
1.8204246 -4.510695 -0.19958198
1.8007845 -4.4440265 -0.20578976
1.677101 -4.7032723 -0.21038517
1.7074807 -4.7823768 -0.20619591
1.8196715 -4.2969079 -0.18581821
1.2308921 -4.704577 -0.21133849
1.304315 -4.7450914 -0.19978306
1.2792112 -4.7599549 -0.19992873
1.5571048 -4.7830343 -0.21664035
1.4235835 -4.8568683 -0.21832888
1.384286 -4.9366021 -0.21499713
-1.0673647 0.56118524 -0.021619663
-1.0444766 0.50203472 -0.026268316
-1.1319907 0.55878681 -0.024421798
-1.1719421 0.73791498 -0.026004314
-1.1444114 0.79995883 -0.018245539
-1.2238102 1.1634985 -0.01891434
-1.2250023 1.286934 -0.016910072
-1.2550685 1.0995225 -0.021049105
-1.247501 0.97818631 -0.024454687
-1.2182099 0.91899961 -0.023605531
-0.8786217 -0.038069539 -0.043027118
-0.98215753 0.022523332 -0.036422979
4.5342832 0.78438818 -0.084441178
4.4609127 0.79063481 -0.083665848
4.6544156 0.88864356 -0.084905341
4.709177 0.99554503 -0.080947712
4.6312876 0.83444273 -0.086119421
4.5907426 1.166636 -0.073151372
4.6207905 1.2223768 -0.073856466
4.5629482 1.3384604 -0.070111133
4.3311367 0.46088254 -0.077277079
4.2767825 0.46406531 -0.076235749
4.4269447 0.51146609 -0.081034482
4.0515223 0.52778095 -0.072165303
4.1573534 0.41551307 -0.071202405
4.2512813 0.40972057 -0.075462304
-0.9721961 -3.2991459 -0.12726377
-0.85858315 -3.466476 -0.13478689
-0.77593172 -3.528547 -0.14037892
-0.65350711 -3.6176753 -0.15289912
-0.14943366 -3.9536328 -0.1736993
-0.52618581 -3.7022836 -0.15660118
-0.46480396 -3.7928045 -0.16370693
-0.38166666 -3.8769326 -0.16938877
-0.35800034 -3.9445124 -0.1662585
-1.0907924 -2.9762273 -0.11543763
-1.0493042 -3.0566459 -0.11715744
-0.98783326 -3.1421349 -0.12158541
-1.1450666 -0.40396762 -0.035180617
-1.0887442 -0.15872876 -0.026964154
-0.95019412 -0.037764009 -0.038800247
-0.91230398 -0.097936608 -0.044428095
-1.1303748 -0.46223053 -0.032267582
-1.240238 -0.46887225 -0.046624195
-1.5117805 -1.9797862 -0.054436922
-1.4411314 -2.1063683 -0.058013324
-1.3884984 -1.5082699 -0.053216644
-1.406197 -1.6298271 -0.050963461
-1.3045086 -1.51212 -0.062366411
-1.5638639 -1.8574241 -0.060216051
-1.5291669 -1.7730798 -0.04099565
-1.5020986 -1.7010332 -0.03898149
-1.4731869 -1.6354753 -0.041722544
-1.0845867 -2.7534447 -0.10505496
4.7988081 -1.9125282 -0.13350265
4.7216868 -1.8502631 -0.13557056
4.6507168 -2.0389326 -0.14460209
4.783752 -1.7862594 -0.12873572
4.7410798 -1.602028 -0.12385249
4.7070513 -1.5401778 -0.12214522
4.685102 -1.4171395 -0.11549555
4.5960488 -1.2935337 -0.11090229
4.5394521 -1.2893345 -0.10899248
4.4736481 -1.2871144 -0.1085135
4.5860729 -2.1635547 -0.14558324
4.3089638 -2.1751256 -0.13798426
4.6936378 -2.3639352 -0.15257667
4.5993347 -2.4242237 -0.15127742
4.5712862 -2.2316229 -0.14952746
4.6261978 -2.2350652 -0.15246081
4.4685254 -0.99659014 -0.10050093
4.44205 -1.2278279 -0.10684901
4.3756514 -1.0507371 -0.097521819
4.3473587 -0.99230278 -0.094536677
4.2931814 -0.99364132 -0.094896913
4.2718377 -0.9364624 -0.094609693
4.0817099 -1.0664891 -0.097521819
4.1593885 -0.93624538 -0.086016916
4.1976738 -0.87964231 -0.090694249
4.4187341 -2.8585253 -0.16711828
4.394392 -2.7886174 -0.16198732
4.0739384 -3.2706499 -0.167105
4.1804614 -3.1093485 -0.17476253
4.1654997 -3.1856418 -0.17507486
4.0345039 -3.2904582 -0.1722316
3.9561725 -3.4738562 -0.18538414
3.6028028 -3.5496845 -0.19373161
3.5127697 -3.6998274 -0.18922815
3.6479528 -3.6351094 -0.20127141
3.4206579 -3.7280543 -0.19229512
3.3663213 -3.8290098 -0.20646515
2.5501699 -3.9568279 -0.18463634
2.7224419 -4.0316319 -0.19575354
2.8557324 -4.0126953 -0.1956951
3.3050275 -3.8308849 -0.2060082
3.2641721 -3.9046676 -0.20324934
3.1283684 -3.9167583 -0.20249245
2.3976715 -3.8845611 -0.17725974
2.4997623 -3.9572368 -0.18376763
0.020671945 -3.9763067 -0.18657786
0.21318743 -4.0584984 -0.17827708
0.15743069 -4.0695124 -0.18757042
0.33780408 -4.14782 -0.18655452
0.38990441 -4.2506776 -0.19614068
0.52981907 -4.3525915 -0.20770095
0.41773549 -4.3337789 -0.19903198
0.77396542 -4.4373536 -0.20213293
0.7485702 -4.5286736 -0.20500667
2.2832851 -3.8986673 -0.17259499
2.314749 -4.0430436 -0.17261277
2.3742874 -3.9658079 -0.17556848
1.9542984 -4.2814093 -0.19970514
2.19524 -4.1893687 -0.18787009
0.93356216 -4.6117964 -0.21823464
0.81798357 -4.519331 -0.20522156
1.0868253 -4.6251874 -0.23023196
1.0346148 -4.6942749 -0.22335921
1.8446218 -4.4855824 -0.19488955
1.8648579 -4.5520611 -0.1942566
1.7622591 -4.7072792 -0.20946187
1.7749492 -4.7847629 -0.20567337
1.1766189 -4.7119284 -0.22301742
1.6180358 -4.8800006 -0.21531962
1.3106885 -4.9326262 -0.20453478
1.4759886 -4.9489894 -0.2178608
-1.0593052 0.44125316 -0.02509453
-1.0218014 0.44211185 -0.029292211
-1.1096601 0.49899745 -0.023332905
-1.201617 0.67740053 -0.030696632
-1.1333059 0.85971189 -0.01301086
-1.2099463 1.3452694 -0.0089947414
-1.2669045 1.344115 -0.014945673
-1.2420257 0.85690147 -0.027395021
-1.0294918 0.081973366 -0.032673594
4.5113297 0.73163289 -0.084921673
4.5496812 0.72527009 -0.082744166
4.7227993 1.0496672 -0.080053717
4.7394052 0.93969268 -0.08512792
4.661365 0.82891881 -0.080284424
4.639442 0.7744146 -0.081662454
4.5843635 1.2285197 -0.076592393
4.6387153 1.2766992 -0.07153935
4.6089454 1.334075 -0.070001192
4.321867 0.40684873 -0.07878913
4.4075351 0.45846683 -0.083328575
4.4532762 0.45432884 -0.084436201
4.0017824 0.52684432 -0.073059939
4.1093192 0.41590148 -0.072782643
4.1810994 0.35943869 -0.073352419
4.2365732 0.35658607 -0.076056324
-1.0382239 -3.2961276 -0.13165675
-0.82267851 -3.5301993 -0.13337085
-0.93351918 -3.4707904 -0.13825734
-0.71448988 -3.6127062 -0.14763111
-0.66985601 -3.698319 -0.15361461
-0.23035058 -3.9473612 -0.16953005
-0.17167623 -4.035583 -0.17375235
-0.61006242 -3.7030613 -0.15666044
-0.49643388 -3.6171479 -0.15384696
-0.54538518 -3.7931147 -0.16234536
-0.43825144 -3.8751783 -0.16715603
-0.30433291 -3.9453363 -0.16847895
-1.1330931 -3.054389 -0.12228196
-1.0539176 -3.1392784 -0.1259449
-1.0230031 -3.2166777 -0.12524799
-1.1328129 -0.34186774 -0.030032797
-1.0318282 -0.15745158 -0.035542123
-1.0686017 -0.098161086 -0.029288251
-0.88078183 -0.15812206 -0.044292621
-1.1929557 -0.46703681 -0.038358506
-1.2241516 -0.40738887 -0.040995143
-1.5595295 -1.9891884 -0.063085951
-1.5177048 -1.9199755 -0.057087906
-1.4918211 -2.0427749 -0.053015504
-1.3754749 -2.1044412 -0.067520782
-1.509711 -2.1117897 -0.056769535
-1.350345 -1.4466771 -0.058000714
-1.4649214 -1.5115976 -0.041831795
-1.6201659 -1.8570799 -0.064647347
-1.5893041 -1.9228735 -0.063731581
-1.5610924 -1.708351 -0.039798491
-1.4651052 -1.566011 -0.040245
4.7756438 -1.8527603 -0.13462879
4.7893929 -1.9798218 -0.13908939
4.7161474 -2.0462401 -0.1486496
4.8473816 -1.7856936 -0.13011149
4.756022 -1.5395348 -0.11987115
4.7203288 -1.4784523 -0.11755585
4.7340584 -1.4166512 -0.11329392
4.6756167 -1.4782338 -0.12061726
4.7067633 -1.3581954 -0.11318572
4.5680914 -1.2343355 -0.11002751
4.4876671 -1.2293361 -0.10749386
4.6609817 -2.1677947 -0.1483787
4.2506189 -2.1830175 -0.13669983
4.6779146 -2.300976 -0.15395319
4.67414 -2.4284711 -0.1540015
4.5365133 -2.4283335 -0.15206854
4.5819125 -2.493732 -0.15456681
4.4229178 -0.99474061 -0.099809147
4.4449596 -0.93776089 -0.097994596
4.3328376 -0.93588823 -0.094191931
4.2900863 -0.87920058 -0.092957161
4.0315638 -1.0698208 -0.099365272
4.1112571 -0.9421441 -0.087546535
4.2532215 -0.87860596 -0.093116961
4.1976166 -0.81995994 -0.088184707
4.4788404 -2.8540337 -0.16844574
4.4511147 -2.7824948 -0.16447647
4.3691964 -2.7235606 -0.15942061
4.4126039 -2.7194476 -0.16407137
4.1511774 -3.2675066 -0.17704789
4.1876473 -3.2565656 -0.1783658
4.2419219 -3.1841557 -0.17842789
4.0715837 -3.3574457 -0.17183556
4.0164909 -3.4605236 -0.18181106
4.0380893 -3.4398303 -0.17503096
3.4762328 -3.7119539 -0.18815511
3.6266043 -3.7154148 -0.20210575
3.4549906 -3.8058226 -0.19369754
3.4239166 -3.8218849 -0.20133266
3.3802807 -3.9052756 -0.2058087
2.537426 -4.0473852 -0.19020021
2.6695535 -4.031105 -0.19162685
2.7195303 -4.1272726 -0.20165905
2.9117117 -4.0112185 -0.20158136
2.8882117 -4.0970793 -0.20230445
3.3378675 -3.9077377 -0.20702645
3.0757501 -3.9174168 -0.2029229
2.4172437 -3.959029 -0.18037117
-0.0090631759 -4.0550756 -0.1860456
0.091549464 -4.0670123 -0.18973893
0.29926994 -4.2436924 -0.18744273
0.37448952 -4.3401303 -0.19809611
0.50059891 -4.4429264 -0.2103363
0.40764219 -4.4341531 -0.20321615
0.68407041 -4.5386343 -0.21020263
0.76286089 -4.6072383 -0.20248984
2.226258 -3.9068968 -0.17301154
2.2914119 -4.0647278 -0.17751156
2.2426164 -4.0782743 -0.18001638
1.9989594 -4.2754879 -0.19939505
2.2166369 -4.1728792 -0.18459311
0.9454146 -4.6904793 -0.21815275
0.84561801 -4.6030746 -0.20753343
1.1510015 -4.6239929 -0.22598107
1.0903164 -4.7005954 -0.22598535
1.039291 -4.7749848 -0.22193237
1.8854538 -4.4612327 -0.19754127
1.8983685 -4.534318 -0.19604212
1.8078756 -4.6806345 -0.19958949
1.8248937 -4.8307548 -0.19622535
1.7997863 -4.8570395 -0.2007464
1.6604458 -4.874567 -0.20946676
1.5467896 -4.9602203 -0.21730189
1.6971459 -4.9595666 -0.20683829
1.2773259 -4.9423208 -0.20258613
-1.0471457 0.38148788 -0.027359316
-1.1713666 0.49556789 -0.029554784
-1.1803424 0.61577219 -0.025865767
-1.1850457 0.85805464 -0.021400005
-1.1488774 0.92112672 -0.015536606
-1.2137306 0.79766232 -0.026310787
-1.0766861 0.080469377 -0.026290137
-1.0586634 0.14112088 -0.028154738
-1.0674927 0.021383781 -0.027862541
4.5270896 0.67148793 -0.083462507
4.7011633 1.1070987 -0.078147672
4.7152872 0.8840344 -0.083240509
4.6034374 0.77920675 -0.084923528
4.6250386 0.72148526 -0.08521504
4.5987458 1.282264 -0.074503124
4.6258721 1.3882892 -0.067450032
4.3535872 0.40353137 -0.078859486
4.3377476 0.34995058 -0.080007963
4.4344029 0.40076473 -0.083936498
4.0689235 0.41565445 -0.077900887
4.1953545 0.30275285 -0.075906843
4.2737832 0.35222396 -0.076549619
-1.0662366 -3.3846209 -0.14181507
-0.88373202 -3.5477016 -0.13760918
-0.99072158 -3.4719949 -0.14470658
-0.95441335 -3.5556602 -0.14524417
-0.78990227 -3.6139708 -0.14053023
-0.75107032 -3.6984215 -0.14832875
-0.25169569 -4.0336719 -0.17273757
-0.12313521 -4.0354476 -0.17609371
-0.56830275 -3.6219549 -0.15465604
-0.62186748 -3.7933538 -0.16251089
-0.50499088 -3.8742573 -0.1639739
-0.46267092 -3.9562576 -0.16674638
-1.1728855 -3.1248579 -0.12098844
-1.1855251 -0.3470065 -0.03831286
-1.1484504 -0.28345707 -0.03272137
-1.1243329 -0.10221212 -0.028540056
-1.0768145 -0.039254073 -0.027940884
-1.2620341 -0.34714958 -0.040047608
-1.6158408 -1.9888542 -0.067519441
-1.5675409 -2.0606973 -0.070515335
-1.5045122 -1.9086289 -0.048322689
-1.5145417 -2.0519512 -0.059685644
-1.3979783 -2.1743946 -0.065724894
-1.5483063 -2.1246223 -0.067512706
-1.3079814 -1.3859751 -0.059809316
-1.448445 -1.444822 -0.0422424
-1.6042364 -1.7889845 -0.058497116
-1.6085055 -1.7167451 -0.048419155
-1.588256 -1.6443245 -0.037705686
-1.540171 -1.5656556 -0.028739784
4.7354946 -1.9773145 -0.14016595
4.7716589 -2.0441618 -0.14267431
4.6965628 -2.1105182 -0.15126468
4.8470335 -1.8518785 -0.13467334
4.8215122 -1.7235111 -0.12712415
4.7820978 -1.4758126 -0.11516642
4.7976665 -1.4165779 -0.11468871
4.6620317 -1.3578211 -0.11612958
4.7193241 -1.2970369 -0.10865243
4.5886173 -1.1765531 -0.10801224
4.7262964 -2.1752851 -0.15235519
4.1989737 -2.1915431 -0.14027308
4.7339935 -2.305326 -0.15541811
4.7054181 -2.240149 -0.15467653
4.7392039 -2.4363158 -0.15782946
4.4959769 -2.4297731 -0.15100804
4.534296 -2.5018647 -0.15724112
4.6367731 -2.497169 -0.15742929
4.4750381 -0.88402897 -0.10129061
4.3736067 -0.93643963 -0.095974259
4.3442402 -0.87820041 -0.092696175
4.0702734 -0.94867444 -0.093264118
4.2582288 -0.82079768 -0.089861162
4.1649361 -0.82275432 -0.086260855
4.1926341 -0.76493859 -0.088175841
4.5409551 -2.8486381 -0.1667366
4.4736686 -2.9298351 -0.17189211
4.4884768 -2.778249 -0.1637267
4.4637637 -2.7114911 -0.16303903
4.3104186 -2.7327766 -0.1579718
4.179781 -3.3379812 -0.18059325
4.2932529 -3.1781917 -0.17555335
4.1037636 -3.432924 -0.17671867
3.50418 -3.7895246 -0.19266509
3.580327 -3.7961893 -0.20122246
3.724951 -3.7207539 -0.2063432
3.440563 -3.8959031 -0.19967827
2.4989507 -4.0584602 -0.19271269
2.6057882 -4.0410981 -0.19015038
2.6553872 -4.1319728 -0.19761384
2.7877378 -4.1218414 -0.20220049
2.7078588 -4.2185097 -0.20445679
2.9689658 -4.0003519 -0.20302828
2.8406117 -4.1092167 -0.20144388
2.958535 -4.0912766 -0.20643175
-0.041783892 -4.1376114 -0.18661466
0.05287673 -4.1613398 -0.19694923
0.26876301 -4.259656 -0.19424827
0.21278882 -4.2709804 -0.20350012
0.52879685 -4.5268998 -0.21041958
0.33374754 -4.4372501 -0.19847596
0.37364975 -4.5140009 -0.20076762
0.43351924 -4.5180039 -0.20571086
0.62722492 -4.5407815 -0.21454692
0.7292245 -4.6211853 -0.20746787
2.1569648 -3.9331818 -0.17664845
2.1896582 -4.1156197 -0.18766056
2.2781444 -4.170651 -0.18730909
0.95117104 -4.7643027 -0.21488467
1.9629258 -4.4593091 -0.20471768
1.8243344 -4.6495495 -0.19297643
1.7814449 -4.6085973 -0.20413873
1.8827963 -4.8162837 -0.20289649
1.7375067 -4.8731956 -0.20654222
1.5896561 -5.0466013 -0.2115777
1.7485193 -4.950892 -0.20239685
1.7172514 -5.0453401 -0.2047791
1.2223238 -4.8817058 -0.21236117
1.2350776 -4.8557 -0.2000078
-1.0630436 0.32073033 -0.02595355
-1.025566 0.32176313 -0.030154681
-1.2380995 0.49369761 -0.033426005
-1.2012925 0.55614144 -0.032479022
-1.237329 0.61461693 -0.031880166
-1.0688392 0.2004555 -0.026351942
-1.124024 0.13756941 -0.025234271
-1.1133938 0.017706124 -0.029278802
4.5511661 0.6137507 -0.0840137
4.7233524 1.1629668 -0.079524405
4.7753525 1.1053102 -0.081638455
4.7445736 0.82812762 -0.087167606
4.6742411 0.71874982 -0.084374465
4.6058002 0.6675328 -0.086365372
4.3947721 0.34642601 -0.080916271
4.317862 0.29520643 -0.078776449
4.4501405 0.34301066 -0.08452934
4.0095072 0.41388682 -0.076373652
4.163146 0.30347437 -0.073894091
4.1762881 0.24712488 -0.07327906
4.2569551 0.29838547 -0.078086443
-1.1093167 -3.4563384 -0.1397593
-0.97366828 -3.3914626 -0.13865957
-0.96452469 -3.6415086 -0.15293071
-0.8496204 -3.6269369 -0.13902804
-0.79780632 -3.7000778 -0.14127804
-0.7582109 -3.7895079 -0.15004356
-0.32126093 -4.0365934 -0.17342846
-0.68279946 -3.7882295 -0.15719822
-0.64005262 -3.8748982 -0.16279927
-0.58894855 -3.8750503 -0.16389558
-0.53473788 -3.9613934 -0.1672357
-0.4377991 -4.0392623 -0.16987526
-1.1983523 -3.2005138 -0.11875805
-1.2338263 -3.0372698 -0.1086325
-1.1275512 -0.22207129 -0.029513001
-1.1418613 -0.043395784 -0.030775905
-1.039399 -0.037687022 -0.032154601
-1.2275294 -0.28688499 -0.038545031
-1.6579754 -2.0589867 -0.076319471
-1.5952921 -2.1272137 -0.074031219
-1.4321873 -2.2419891 -0.061867189
-1.357226 -2.2431421 -0.073477052
-1.354917 -1.321081 -0.055220123
-1.5139668 -1.4467194 -0.03282905
-1.487532 -1.3819789 -0.035062682
-1.6553296 -1.7188188 -0.054943621
-1.6406463 -1.6515653 -0.048521381
-1.5658715 -1.6366816 -0.031023081
-1.5800685 -1.5771329 -0.033783503
-1.5479828 -1.5151467 -0.033191927
-1.5798022 -1.520117 -0.037756048
4.8299208 -2.045882 -0.14257051
4.756094 -2.1085069 -0.1465916
4.8717141 -1.9146287 -0.13735153
4.8393149 -1.6632373 -0.12723669
4.7778921 -1.3579686 -0.11334045
4.6798477 -1.299349 -0.11330818
4.7829185 -1.2971321 -0.11005637
4.5414667 -1.174163 -0.1085776
4.5692072 -1.1193265 -0.10937553
4.7910104 -2.1760511 -0.14869598
4.1482611 -2.1963866 -0.14268318
4.7986937 -2.305934 -0.15160957
4.7741494 -2.2410622 -0.15235449
4.7247128 -2.5058262 -0.16197114
4.8129468 -2.4402528 -0.15629618
4.5257454 -2.5728669 -0.16016528
4.4614143 -2.5000634 -0.15388328
4.638206 -2.5704927 -0.16277367
4.5367541 -0.88626844 -0.098858126
4.4102955 -0.87927473 -0.095490307
4.3287868 -0.82182121 -0.0920619
4.0105963 -0.95041144 -0.092550702
4.2481484 -0.76424825 -0.090613157
4.1168666 -0.82812816 -0.087801509
4.2011518 -0.7069155 -0.087930515
4.5992327 -2.8546386 -0.17234893
4.5612941 -2.7800586 -0.16683549
4.5110965 -2.925282 -0.17111017
4.4079809 -2.9322536 -0.16703404
4.4910355 -2.9979553 -0.17310971
4.5257688 -2.7064071 -0.16141763
4.4524951 -2.647995 -0.16345216
4.2581658 -2.7426302 -0.16166911
4.256248 -3.3364911 -0.18391073
4.3547745 -3.1716347 -0.17407294
4.4051824 -3.1571794 -0.17334251
4.1637526 -3.420763 -0.18214582
3.549978 -3.8767455 -0.20117025
3.8050349 -3.7310212 -0.20822231
3.6783848 -3.806808 -0.21141696
3.504848 -3.8842628 -0.19777176
2.4060588 -4.0503116 -0.18230352
2.5399053 -4.1438355 -0.1970697
2.581948 -4.1383357 -0.19577062
2.6439116 -4.2288036 -0.20290762
2.8165522 -4.2021351 -0.2036632
2.7524149 -4.2138829 -0.20643428
3.0620232 -4.0078149 -0.20888703
2.8778241 -4.1893344 -0.20431647
2.9912775 -4.1766791 -0.21166909
-0.12528956 -4.1329427 -0.18211675
-0.084127843 -4.2256579 -0.18811308
0.029670171 -4.2458997 -0.19801131
0.13011643 -4.2582765 -0.20166594
0.489337 -4.6126432 -0.21063334
0.29463395 -4.4484758 -0.20326363
0.4048045 -4.6089082 -0.20544787
0.73558688 -4.6992025 -0.20493646
2.3400567 -4.1605659 -0.18705617
0.87809163 -4.7556839 -0.20799449
2.01601 -4.4584689 -0.20643613
1.9983613 -4.3751326 -0.20451082
1.8737909 -4.6299963 -0.19764122
1.7386514 -4.6223173 -0.21070084
1.8675362 -4.7323604 -0.19795305
1.9683468 -4.8198824 -0.21202187
1.6481055 -5.0523839 -0.20966572
1.5167086 -5.1269917 -0.21316782
1.7974176 -4.9963818 -0.19266309
1.7798426 -5.0289149 -0.1990633
1.7185881 -5.1175427 -0.19831477
1.1679271 -4.8893409 -0.22413193
-1.0518796 0.26117158 -0.027987849
-1.2127907 0.43442684 -0.031643488
-1.0313843 0.20166336 -0.030555401
-1.1762766 0.1338194 -0.033574432
-1.133698 0.19701108 -0.029175689
4.4936566 0.61781245 -0.081180327
4.5179543 0.55907732 -0.081967317
4.7007284 1.2205685 -0.077350572
4.8017111 1.1610695 -0.082712471
4.8399467 1.1056477 -0.085571259
4.8106222 1.0494195 -0.08572977
4.7194867 0.77259654 -0.085025989
4.7936349 0.77080029 -0.088448942
4.6513271 0.66413933 -0.085521922
4.7382274 0.71551895 -0.086152978
4.6264696 0.60996515 -0.086340152
4.3591676 0.29271275 -0.081309341
4.3328218 0.23851894 -0.079706706
4.430337 0.28948048 -0.083798558
4.1054902 0.30285871 -0.072975069
4.1896052 0.19066049 -0.075572692
4.241405 0.24502286 -0.078469008
4.2688975 0.24061786 -0.076364577
-1.1467285 -3.5290749 -0.13474596
-1.206151 -3.4476955 -0.12355264
-0.90308934 -3.3836691 -0.13100286
-0.907305 -3.6402991 -0.14645588
-1.0050801 -3.7279317 -0.16026147
-0.85921335 -3.7180636 -0.14544705
-0.80955786 -3.8074772 -0.15044683
-0.38124853 -4.0410109 -0.17216423
-0.33372459 -4.1236496 -0.17468967
-0.71275556 -3.879751 -0.15944411
-0.60265368 -3.9664547 -0.16929542
-0.47906363 -4.0530233 -0.17251201
-1.2451369 -3.2771075 -0.11257759
-1.1067806 -3.2142694 -0.13039182
-1.1919746 -2.9702275 -0.11458075
-1.3197849 -3.0366378 -0.094846703
-1.2878076 -3.1090016 -0.10082187
-1.1898961 -0.2265313 -0.035641328
-1.153893 -0.16320941 -0.029808724
-1.2469095 -0.22769478 -0.04171421
-1.6895858 -2.122467 -0.077674523
-1.7427242 -2.0504055 -0.074850373
-1.5577362 -2.1968966 -0.074661851
-1.4822549 -2.2537582 -0.064790584
-1.3902713 -2.3105881 -0.069302492
-1.3882086 -1.2593917 -0.04984913
-1.4015942 -1.3806365 -0.048549414
-1.3041114 -1.2622401 -0.058922559
-1.5728188 -1.4533659 -0.033605099
-1.5513396 -1.3895086 -0.030660164
-1.4530491 -1.3197368 -0.039487746
-1.6947812 -1.7875897 -0.064253367
-1.6273285 -1.5850106 -0.042387594
-1.6320074 -1.5268577 -0.048566666
4.8935728 -2.0449886 -0.14394046
4.8007388 -2.1079462 -0.14292091
4.8608527 -1.9787809 -0.1391056
4.8123307 -1.6014717 -0.12395164
4.8423133 -1.3576952 -0.11380928
4.6815524 -1.2369945 -0.10572094
4.7621074 -1.2388351 -0.10843129
4.6283941 -1.1199017 -0.10546241
4.5886574 -1.0618826 -0.10712026
4.8400793 -2.1746197 -0.14605188
4.8477917 -2.3043439 -0.14888951
4.7805486 -2.3714979 -0.15501074
4.8370576 -2.2468483 -0.15344398
4.7039456 -2.5711212 -0.16306259
4.7508988 -2.5718482 -0.16199324
4.8711267 -2.4420083 -0.15591983
4.8251848 -2.3706257 -0.15108721
4.8115206 -2.5135744 -0.16426474
4.5662746 -2.5712783 -0.16116863
4.5357203 -2.6347389 -0.1588053
4.4332123 -2.5072348 -0.15696123
4.4368324 -2.5667586 -0.1545053
4.6562071 -2.6370001 -0.16372773
4.5203786 -0.94194192 -0.10108664
4.5163784 -0.82822007 -0.099091209
4.4409118 -0.82404178 -0.095967121
4.3695874 -0.82255542 -0.093908168
4.348762 -0.76570845 -0.092877828
4.2850184 -0.76518059 -0.090502463
4.0567732 -0.8316164 -0.088481478
4.1685424 -0.70935506 -0.08600086
4.1856236 -0.65069455 -0.085148387
4.6624126 -2.8495851 -0.17151189
4.5661974 -2.9190321 -0.16937032
4.6180377 -2.7748439 -0.16649687
4.422102 -2.998656 -0.1694558
4.5532603 -2.9922554 -0.17130975
4.5573587 -2.7008467 -0.15996484
4.4718356 -2.6366463 -0.1579656
4.3779268 -2.6463823 -0.15620674
4.1981654 -2.7443342 -0.16198272
4.3163514 -3.3347914 -0.18325861
4.2177081 -3.4185026 -0.18805395
4.4401593 -3.1483099 -0.17572629
4.4186492 -3.077239 -0.17133479
3.5310638 -3.9626939 -0.20186733
3.8921697 -3.7322109 -0.20304599
