# .PCD v0.7 - Point Cloud Data file format
VERSION 0.7
FIELDS x y z
SIZE 4 4 4
TYPE F F F
COUNT 1 1 1
WIDTH 1488
HEIGHT 1
VIEWPOINT 0 0 0 1 0 0 0
POINTS 1488
DATA ascii
13.358929 -12.393163 0.87478
13.563377 -12.327401 0.82439321
13.769836 -12.277703 0.77324605
13.973288 -12.214559 0.72306913
14.158113 -12.069916 0.67886627
13.604808 -7.1997185 0.89520174
13.901427 -6.8868699 0.8255741
14.02103 -6.8514557 0.79605901
14.096939 -6.7026076 0.77933264
14.157317 -6.5255599 0.76696086
14.232098 -6.3941069 0.75024325
14.315469 -6.2891674 0.73094493
14.404584 -6.2011719 0.70993268
14.500342 -6.1297221 0.68698633
14.594579 -6.0567193 0.6644448
14.705975 -6.0171828 0.6370576
14.816984 -5.9754815 0.60980093
14.967314 -6.0001502 0.5715977
15.206401 -6.1653028 0.50883299
17.601513 -9.7519827 -0.15070477
17.825216 -9.7311926 -0.20666474
17.889528 -9.4678755 -0.21867126
17.867447 -9.0920868 -0.20715475
17.875317 -8.7759752 -0.20412086
17.892309 -8.4860811 -0.20379749
17.919708 -8.2216368 -0.20649539
17.946346 -7.9665284 -0.20915103
17.953665 -7.6979542 -0.2067299
17.966827 -7.4464736 -0.20605034
17.97348 -7.1969423 -0.2037621
18.000544 -6.9782634 -0.20710114
18.022209 -6.7608619 -0.20910135
18.031572 -6.5379219 -0.20791692
18.06369 -6.3440223 -0.2129201
18.091263 -6.1510124 -0.2167926
18.099731 -5.945868 -0.21566468
18.132923 -5.7680402 -0.22119395
18.162132 -5.5908675 -0.22572917
18.16452 -5.3959885 -0.22323394
18.200996 -5.2328362 -0.22982129
18.210522 -5.0524316 -0.22935084
18.239777 -4.8905106 -0.23414163
18.249577 -4.7179356 -0.23386396
18.239374 -4.5356517 -0.22839928
18.241497 -4.3657975 -0.22623341
18.206758 -4.1767097 -0.21448335
18.184467 -4.0002346 -0.20606565
18.175198 -3.8355558 -0.20111452
18.145319 -3.6630845 -0.19085015
18.128906 -3.5019593 -0.18415757
18.082981 -3.3294506 -0.16985224
18.085913 -3.1850066 -0.16829173
18.059433 -3.02932 -0.15915003
18.065372 -2.8911953 -0.15844595
18.041702 -2.7425818 -0.15012285
18.033102 -2.6028736 -0.14573531
18.049088 -2.4745848 -0.14771874
18.007774 -2.3270376 -0.13496938
18.000332 -2.1940892 -0.13097998
17.990385 -2.0621419 -0.1263762
17.968645 -1.9284887 -0.11877607
17.953732 -1.7988493 -0.11295807
17.898804 -1.6607035 -0.096929558
17.907274 -1.5408077 -0.097153641
17.90416 -1.4190549 -0.094432868
17.898882 -1.2979013 -0.091175713
17.89146 -1.1773823 -0.08738929
17.881912 -1.0575484 -0.083079346
17.879862 -0.93981975 -0.080688685
17.875774 -0.82249665 -0.077792361
17.888939 -0.70770127 -0.07928247
17.880846 -0.59096801 -0.075387575
17.890095 -0.47612956 -0.075889871
17.887714 -0.36064601 -0.073454686
17.893064 -0.24574435 -0.072974317
17.896465 -0.13077918 -0.072003551
17.897923 -0.015773686 -0.070542857
17.907131 0.099408679 -0.071031325
17.914381 0.21490365 -0.071022846
17.909986 0.33014423 -0.06808468
17.913317 0.44598779 -0.067083493
17.914673 0.56203032 -0.065582223
17.9044 0.6771934 -0.061166152
17.901808 0.79337382 -0.058668844
17.916443 0.91243988 -0.060465537
17.900244 1.0275539 -0.054557212
17.891651 1.1440916 -0.050543312
17.928679 1.2701877 -0.057871111
17.896925 1.3833493 -0.048078716
17.891663 1.5025107 -0.044863779
17.85606 1.6146156 -0.034117959
17.556107 1.6532502 0.04205928
17.256824 1.6815945 0.11790654
17.181248 1.7700094 0.13835035
17.205986 1.8902574 0.13402545
17.164114 1.989084 0.14614265
16.74659 1.9465165 0.25066346
16.767368 2.061857 0.24725854
16.848843 2.2047858 0.22899735
16.605276 2.210376 0.29045829
15.289736 1.7151158 0.6140874
15.075337 1.6938864 0.66778338
14.950132 1.7093848 0.69958907
14.860112 1.7390888 0.72275335
14.752994 1.7566762 0.75003737
14.620816 1.7563995 0.78335196
14.371861 1.6818453 0.84491968
14.251334 1.676247 0.87521863
14.173079 1.693359 0.89522439
14.103233 1.713622 0.91316247
14.041569 1.7375005 0.92909443
15.540271 2.8847778 0.56955045
15.294308 2.8095796 0.63035583
15.463583 3.0456538 0.59143162
15.304238 3.02984 0.63134682
15.494198 3.2989297 0.58772743
22.007774 14.814675 -0.87293571
21.711212 14.934715 -0.79634815
21.364717 14.97396 -0.7084446
21.412724 15.626125 -0.71034962
14.148575 21.517788 1.2117801
13.789147 21.610142 1.3037837
12.822244 14.812782 1.4414643
12.575442 14.89285 1.5049088
12.327911 14.998487 1.5689377
11.964157 12.041848 1.6145304
11.767288 12.40714 1.6698437
11.556967 12.378898 1.7224163
11.59219 -11.607714 1.3433499
11.78996 -11.674019 1.2924908
12.019864 -12.495873 1.2218238
11.884458 -6.3267746 1.3515607
12.453007 -12.618481 1.1107795
12.664446 -12.579208 1.0581102
12.872726 -12.516305 1.006601
13.081726 -12.46958 0.95466071
13.289581 -12.419155 0.90306568
13.4978 -12.374913 0.85128355
13.703351 -12.317137 0.80038297
13.91138 -12.275339 0.74861097
14.106265 -12.171245 0.70111567
14.358707 -12.32637 0.63509554
13.576872 -7.2180295 0.91137874
13.875889 -6.9078245 0.84086305
13.995717 -6.8734756 0.81120801
14.097483 -6.7904129 0.78686011
14.141962 -6.5672755 0.77912253
14.2296 -6.4638548 0.75865078
14.310556 -6.3502131 0.74002129
14.396804 -6.2536917 0.71979314
14.489248 -6.1739225 0.69774318
14.57988 -6.0927463 0.6761722
14.682482 -6.0365558 0.65119576
14.79362 -5.9959269 0.62382597
14.928836 -5.9961963 0.58975434
15.105382 -6.0615797 0.54425329
17.535269 -9.7807217 -0.12589
17.747974 -9.745553 -0.17894949
17.92853 -9.6562624 -0.22306615
17.872513 -9.2217216 -0.20219608
17.878458 -8.8967247 -0.19864425
17.916531 -8.6299267 -0.20409296
17.935522 -8.3489037 -0.20451145
17.965418 -8.0930452 -0.20806809
17.982368 -7.8311267 -0.20826732
17.979645 -7.5561709 -0.20330624
18.008793 -7.3279824 -0.20710233
18.012255 -7.0793638 -0.20410834
18.043182 -6.8685503 -0.20862435
18.0483 -6.6378307 -0.20632334
18.082684 -6.4434671 -0.21196517
18.105379 -6.243186 -0.21456765
18.130556 -6.0507145 -0.21791743
18.1586 -5.8657727 -0.22210713
18.182423 -5.6817079 -0.22524582
18.194487 -5.4923859 -0.22533967
18.209871 -5.3104959 -0.22638448
18.22893 -5.1356974 -0.22846633
18.259882 -4.9734759 -0.23374063
18.263479 -4.7947564 -0.23186441
18.271172 -4.6229739 -0.23112729
18.275126 -4.4524107 -0.22946557
18.258871 -4.2727046 -0.22256927
18.230276 -4.0899205 -0.21251436
18.197569 -3.9094944 -0.20145856
18.18634 -3.745832 -0.19607762
18.16304 -3.5791852 -0.18760704
18.118816 -3.4056361 -0.17375423
18.114462 -3.256305 -0.17032766
18.098263 -3.1040463 -0.16386977
18.087814 -2.9573724 -0.15894929
18.074417 -2.8120468 -0.15330517
18.067125 -2.671783 -0.14927985
18.057095 -2.5326619 -0.14458056
18.053486 -2.3980651 -0.14157216
18.01977 -2.2548945 -0.13083811
18.010923 -2.1226916 -0.12654617
17.999594 -1.9915162 -0.1216421
17.976471 -1.8587449 -0.11374073
17.969593 -1.7324206 -0.11003616
17.941576 -1.6022772 -0.10094173
17.930044 -1.4779989 -0.096095145
17.935261 -1.3586206 -0.095545337
17.919333 -1.2358797 -0.089613944
17.910765 -1.1157866 -0.08557988
17.900089 -0.99639797 -0.08102303
17.906534 -0.88033801 -0.080836356
17.92063 -0.76548374 -0.082596488
17.913479 -0.64850754 -0.078967504
17.904322 -0.53203166 -0.07483919
17.902843 -0.41669986 -0.072665937
17.909088 -0.3020221 -0.07245034
17.923088 -0.18751189 -0.074190892
17.906063 -0.072363764 -0.068100736
17.916178 0.042385362 -0.068859227
17.924347 0.15746547 -0.069122441
17.930565 0.27283597 -0.068888038
17.925135 0.38785768 -0.065724216
17.927433 0.50353783 -0.064497299
17.927757 0.61940873 -0.06277024
17.926102 0.73543787 -0.060542662
17.922468 0.85157818 -0.057811834
17.936029 0.97076923 -0.059371904
17.928358 1.0873799 -0.055618167
17.928223 1.2058297 -0.053736314
17.926023 1.3245909 -0.051327478
17.912273 1.4414544 -0.04603624
17.905945 1.5605547 -0.042580899
17.803555 1.6547551 -0.015295293
17.391327 1.6573436 0.088697158
17.204313 1.7139444 0.13673943
17.211586 1.8276132 0.1366802
17.207523 1.9388698 0.13944219
16.881151 1.9334741 0.22166361
16.729498 1.9836155 0.26069084
16.839746 2.1353543 0.23525777
16.758043 2.2111452 0.25704655
16.532921 2.2207553 0.31397212
15.22227 1.7121733 0.63657981
15.034947 1.7005147 0.68364584
14.918695 1.7184039 0.71325064
14.837376 1.7511303 0.73427802
14.721841 1.7623534 0.76359963
14.522398 1.7206701 0.81325883
14.325357 1.6723845 0.86220938
14.238574 1.6855643 0.88431269
14.160391 1.7015232 0.90428901
14.090598 1.7207146 0.92220104
14.036974 1.7492602 0.93618053
15.502179 2.8923004 0.58444357
15.647941 3.1118271 0.55110282
15.378753 3.0145137 0.6174866
15.311928 3.0704989 0.63521844
15.529422 3.3668802 0.58498055
21.900255 14.90076 -0.84280699
21.525534 14.902582 -0.74828243
21.342087 15.187474 -0.6976102
14.369668 21.623308 1.1603465
13.963731 21.321732 1.2580595
13.61103 21.450243 1.3489971
12.724169 14.883582 1.4711375
12.467553 14.831731 1.53506
12.233398 15.224751 1.600196
11.898515 12.525043 1.642928
11.684067 12.338743 1.6941408
11.541407 -11.598168 1.3692818
11.73818 -11.646252 1.318903
11.943693 -11.920588 1.2628356
11.87818 -6.3298678 1.3654759
12.396302 -12.666551 1.1371638
12.607938 -12.619156 1.0845021
12.816279 -12.548131 1.0330348
13.028323 -12.523086 0.97992563
13.233321 -12.444736 0.92941302
13.443579 -12.412214 0.87686902
13.651608 -12.366075 0.82509434
13.855034 -12.296602 0.7748419
14.060741 -12.243155 0.72376639
14.254601 -12.137346 0.67648661
13.755295 -9.137661 0.84873456
13.566025 -7.2459226 0.92569035
13.768324 -7.0359125 0.87791204
14.094618 -6.8320465 0.79876238
14.162953 -6.6647921 0.78411335
14.233941 -6.5156121 0.76851743
14.316353 -6.4024873 0.74948144
14.403904 -6.3065267 0.72888303
14.493284 -6.2183781 0.70770264
14.58493 -6.1378617 0.6858328
14.683809 -6.0736032 0.66188687
14.786116 -6.0164146 0.63696581
14.926023 -6.0266409 0.6015147
15.077194 -6.0507703 0.56300473
15.245545 -6.0966973 0.51982272
17.686956 -9.7594051 -0.15288292
17.899954 -9.7219391 -0.20605576
17.980671 -9.4832754 -0.22273824
17.953123 -9.099205 -0.20984912
17.961071 -8.7829933 -0.20696504
17.960299 -8.4693727 -0.20192119
18.011688 -8.2362137 -0.21128424
18.032324 -7.9732265 -0.21242426
18.033382 -7.6969986 -0.20841618
18.052958 -7.4529543 -0.20958062
18.053089 -7.1959944 -0.20563789
18.086823 -6.9845109 -0.21087542
18.094891 -6.7528591 -0.20932579
18.111042 -6.536984 -0.21005918
18.14312 -6.3430896 -0.21515127
18.170643 -6.1500778 -0.2191083
18.193665 -5.958055 -0.22194307
18.204815 -5.7606993 -0.22169894
18.233871 -5.5836596 -0.22629003
18.24374 -5.395071 -0.22585633
18.272451 -5.2259116 -0.23048007
18.289661 -5.0515218 -0.23212023
18.318882 -4.8896031 -0.23698436
18.320618 -4.7114444 -0.2346606
18.318403 -4.5347505 -0.2313612
18.328701 -4.3701992 -0.23140605
18.27743 -4.1706796 -0.21536949
18.263403 -3.9993527 -0.20916948
18.245642 -3.8298411 -0.20205413
18.215649 -3.657531 -0.19180875
18.199135 -3.4965646 -0.18513942
18.170506 -3.332969 -0.17537326
18.164707 -3.184164 -0.1715975
18.147053 -3.0325441 -0.16478424
18.126286 -2.8825545 -0.15721138
18.111439 -2.7380075 -0.15121672
18.120834 -2.6056275 -0.15153077
18.109549 -2.4669414 -0.14652517
18.077261 -2.3229735 -0.13613537
18.060528 -2.1871145 -0.12979823
18.059715 -2.0584235 -0.12759067
18.047216 -1.9276943 -0.12240255
18.013567 -1.7928967 -0.11180945
17.967936 -1.657505 -0.098182842
17.985783 -1.5400308 -0.10086029
17.982647 -1.4182839 -0.098172911
17.967834 -1.2952349 -0.092518121
17.96036 -1.1748947 -0.088757932
17.960335 -1.0567962 -0.086914003
17.948664 -0.93767917 -0.082112364
17.954147 -0.82174975 -0.081693232
17.957655 -0.70592111 -0.080773756
17.959179 -0.59023309 -0.079359032
17.958736 -0.47471455 -0.077448025
17.956324 -0.35940433 -0.075043783
17.961641 -0.24468441 -0.074600965
17.965021 -0.12989087 -0.07366652
17.956757 -0.015075829 -0.0697928
17.965942 0.099746905 -0.070324615
17.973183 0.21489234 -0.070360154
17.978466 0.33031154 -0.069897979
17.981785 0.44597036 -0.068935193
17.973471 0.56095451 -0.06504593
17.982504 0.67787015 -0.065507956
17.970266 0.79281694 -0.060628902
17.975294 0.91031277 -0.060070269
17.959126 1.0250798 -0.054200083
17.960119 1.143008 -0.052617606
17.968582 1.2631835 -0.052885205
17.974915 1.3840007 -0.052603427
17.950724 1.4986452 -0.044711646
17.943436 1.617678 -0.04101732
17.709085 1.6746205 0.019064162
17.33486 1.6821957 0.11371439
17.259279 1.7705954 0.13418514
17.256304 1.8815559 0.13666449
17.251291 1.9929281 0.13966465
16.779047 1.9299517 0.25798774
16.763851 2.0301085 0.26338869
16.890852 2.1903303 0.23380016
16.719065 2.2265725 0.27776673
15.341426 1.7033817 0.61768794
15.136065 1.6858938 0.66931021
15.037196 1.714239 0.69474149
14.921149 1.7304578 0.72432506
14.82277 1.7524295 0.74953687
14.707676 1.7616912 0.77877289
14.441858 1.6772656 0.84463948
14.329754 1.6766614 0.87297046
14.243262 1.6884655 0.89502299
14.173512 1.7085789 0.91297609
14.111943 1.7323005 0.92891753
14.06628 1.7658173 0.94099247
15.380294 2.8158941 0.62526822
15.572701 3.0701857 0.58060306
15.38233 3.0302711 0.62809736
15.345616 3.1104302 0.63862735
22.060953 14.78285 -0.87793261
21.787323 14.935249 -0.80645734
21.413656 14.933012 -0.71208704
21.419865 15.517582 -0.70465916
14.221996 21.488297 1.2058798
13.851659 21.471189 1.2992005
13.501031 21.656509 1.390653
12.659463 14.982867 1.5007783
12.395396 14.808993 1.5648472
12.041696 12.032074 1.6115792
11.843811 12.337371 1.6662891
11.634588 12.26912 1.7181274
11.66864 -11.607678 1.3451238
11.867492 -11.723957 1.2931012
11.853866 -6.3325725 1.3791699
12.319774 -12.703849 1.1638095
12.532244 -12.658328 1.1108226
12.744316 -12.618996 1.0578408
12.953234 -12.556023 1.0060182
13.165338 -12.529038 0.95283836
13.371354 -12.458692 0.90186161
13.580202 -12.414347 0.84976894
13.782908 -12.336794 0.79973912
13.99313 -12.304728 0.74711072
14.180202 -12.161485 0.7020368
13.745708 -7.0842633 0.88972682
14.061522 -6.8453751 0.81360602
14.16279 -6.7625022 0.78929305
14.221517 -6.5765061 0.7773152
14.293938 -6.436348 0.76117069
14.378406 -6.3320127 0.74143243
14.476766 -6.2627087 0.717646
14.569343 -6.1828637 0.69548291
14.660105 -6.1016045 0.67379946
14.772035 -6.0629058 0.64611369
14.883595 -6.0220232 0.61855322
15.029013 -6.039259 0.5815447
15.271776 -6.2149792 0.51750034
17.600222 -9.7639275 -0.12544388
17.81793 -9.7372875 -0.18005803
18.003777 -9.6563368 -0.22578612
17.98139 -9.2706127 -0.21420737
17.970921 -8.9209003 -0.20619316
17.997631 -8.6379309 -0.20859952
18.022758 -8.3646193 -0.21075335
18.034475 -8.0854082 -0.20942779
18.057558 -7.831202 -0.21135779
18.061228 -7.5637283 -0.20817879
18.083961 -7.3280582 -0.21030468
18.094067 -7.0866861 -0.20915222
18.111561 -6.861505 -0.21011429
18.130335 -6.6449084 -0.2115324
18.157814 -6.443543 -0.21538521
18.173368 -6.2365117 -0.21613529
18.19842 -6.0441723 -0.21951273
18.226345 -5.8593626 -0.22373183
18.250046 -5.6754298 -0.22689708
18.269567 -5.4924731 -0.22901879
18.284943 -5.3105793 -0.23011003
18.303991 -5.1357841 -0.23223908
18.319183 -4.9619532 -0.23340714
18.338526 -4.7948418 -0.23572773
18.338144 -4.6175475 -0.23290563
18.341991 -4.4471278 -0.23125999
18.3339 -4.2727971 -0.22653361
18.28863 -4.0798645 -0.21212453
18.264172 -3.9046676 -0.20324934
18.252857 -3.7411518 -0.1978758
18.229475 -3.5746579 -0.18940459
18.185177 -3.401268 -0.17553936
18.189482 -3.2563875 -0.17439865
18.173281 -3.10413 -0.16796187
18.153948 -2.9534757 -0.1607583
18.140484 -2.8083081 -0.15512142
18.133123 -2.6682103 -0.15110613
18.12303 -2.5292535 -0.14641559
18.101105 -2.3881598 -0.13870202
18.094774 -2.2549849 -0.13505295
18.085924 -2.1227832 -0.13078214
18.065302 -1.9887682 -0.12350727
18.051464 -1.8588314 -0.11800963
18.04459 -1.7325076 -0.11432696
17.997728 -1.5977094 -0.1004061
18.014494 -1.4802451 -0.10283724
18.010246 -1.3587039 -0.099893056
17.994316 -1.2359715 -0.093976848
17.976191 -1.1142313 -0.08752089
17.965483 -0.99501574 -0.082978785
17.971901 -0.87912816 -0.082819082
17.966709 -0.76220578 -0.079706877
17.969151 -0.64669728 -0.078546211
17.979282 -0.53212577 -0.079345554
17.977802 -0.41678697 -0.077196337
17.984041 -0.30211154 -0.077009641
17.978651 -0.18709715 -0.073877193
17.981007 -0.07245674 -0.072709121
17.991116 0.042290013 -0.07350032
17.999283 0.15736869 -0.073794179
17.986116 0.27185491 -0.068704709
18.000063 0.3877573 -0.070447892
18.002357 0.50344348 -0.069248028
18.002674 0.61931211 -0.067547016
17.991383 0.73419666 -0.062924482
17.987764 0.85016698 -0.060225215
18.001345 0.96918869 -0.06183001
17.993694 1.0856229 -0.058105536
17.984051 1.2020712 -0.053875733
17.991413 1.3224915 -0.053888168
17.987171 1.4413558 -0.050985832
17.961964 1.5557706 -0.042853951
17.859678 1.6496357 -0.015543854
17.466303 1.6572498 0.084057964
17.27002 1.711013 0.13452628
17.286589 1.8275281 0.13212712
17.282524 1.9387834 0.13486607
17.056843 1.9701822 0.19242784
16.750031 1.9624981 0.26990724
16.806431 2.0912313 0.25762385
16.788269 2.1919122 0.26376581
16.536804 2.1887448 0.32731929
15.332948 1.72876 0.62473708
15.101556 1.696184 0.68276781
15.002778 1.7228466 0.70816863
14.904165 1.7464923 0.73348039
14.788725 1.7575592 0.76285625
14.648565 1.7502371 0.79820281
14.400846 1.6723822 0.85967296
14.314075 1.6855667 0.88183218
14.235902 1.7015216 0.90185785
14.174222 1.7262462 0.91784853
14.104499 1.7435937 0.93576145
15.537888 2.8632014 0.59038448
15.36386 2.8379533 0.63402092
15.484867 3.0388429 0.60650086
15.372003 3.0580049 0.63534892
15.522169 3.2968261 0.60103405
21.957315 14.876085 -0.84948856
21.59963 14.902358 -0.7586205
21.324821 15.045443 -0.68693024
14.472253 21.831543 1.1500229
14.044834 21.371464 1.2511216
13.69711 21.559795 1.3419591
12.799061 14.873694 1.4670837
12.54577 14.87175 1.5311348
12.300119 15.025064 1.5956242
11.961014 12.055354 1.6360924
11.761429 12.468838 1.6929015
11.601253 -11.608215 1.3709035
11.798431 -11.676316 1.3199868
11.832053 -6.3547978 1.3925645
12.245931 -12.770204 1.1901132
12.458517 -12.7066 1.1373023
12.670792 -12.659175 1.0843223
12.878792 -12.578164 1.0329365
13.090149 -12.543168 0.97999918
13.298088 -12.484592 0.92828542
13.510464 -12.46187 0.87490267
13.712683 -12.376228 0.82504863
13.921704 -12.336193 0.77277851
14.124068 -12.263073 0.72269595
14.352644 -12.313076 0.66410273
13.731272 -7.1515141 0.90012956
14.031889 -6.858305 0.82858306
14.144072 -6.8044124 0.80103511
14.233556 -6.692976 0.78010958
14.289972 -6.5067978 0.76869172
14.36831 -6.3846202 0.75075054
14.463683 -6.3069425 0.72781849
14.548834 -6.2098246 0.70777071
14.64907 -6.1472073 0.68337798
14.748084 -6.0828881 0.65932024
14.864547 -6.0518503 0.63033903
15.000196 -6.0530987 0.59600747
15.211379 -6.1798005 0.540645
17.52338 -9.7760744 -0.099389799
17.74061 -9.7518883 -0.15398885
17.964224 -9.7311249 -0.21025458
18.045084 -9.4923792 -0.2270651
18.023388 -9.1162901 -0.21581945
18.025824 -8.7918949 -0.21147056
18.031162 -8.486042 -0.2081385
18.070675 -8.2371416 -0.21432526
18.097538 -7.9818211 -0.21721314
18.098751 -7.7054844 -0.21328625
18.105547 -7.4464741 -0.21103619
18.118755 -7.2042556 -0.2106671
18.132488 -6.9710937 -0.21056755
18.154001 -6.753818 -0.21268006
18.177124 -6.5449009 -0.21532793
18.202259 -6.3440681 -0.21860784
18.229801 -6.1510611 -0.22261634
18.238245 -5.9459343 -0.22160591
18.264006 -5.7616935 -0.22529602
18.293077 -5.5846672 -0.22993569
18.29534 -5.3899312 -0.22751777
18.331684 -5.2269311 -0.23421207
18.356731 -5.0584168 -0.23796445
18.370218 -4.8849053 -0.23871116
18.37188 -4.7068906 -0.23639621
18.369589 -4.5303488 -0.23310363
18.37981 -4.3659496 -0.23316295
18.320189 -4.1614285 -0.21492946
18.306007 -3.9904056 -0.20871073
18.305027 -3.8308849 -0.2060082
18.283604 -3.6632581 -0.19800799
18.249943 -3.4930775 -0.18686806
18.203865 -3.3208802 -0.17255524
18.21541 -3.180985 -0.17332308
18.197701 -3.0295274 -0.1665087
18.167978 -2.8758018 -0.15661761
18.161997 -2.7353187 -0.15293981
18.162304 -2.5995252 -0.15092607
18.150919 -2.4611683 -0.14591087
18.146002 -2.3272781 -0.14260346
18.120136 -2.1881723 -0.13391098
18.100815 -2.0536413 -0.12694646
18.08824 -1.9232521 -0.12175222
18.073233 -1.7939575 -0.11595846
18.037025 -1.6609749 -0.10474207
18.045485 -1.5410913 -0.10503327
18.032887 -1.4172745 -0.099934466
18.018063 -1.2944013 -0.094284795
18.020115 -1.1759675 -0.092976809
18.000963 -1.0547491 -0.086257853
18.008453 -0.93876028 -0.086362787
18.01395 -0.82282853 -0.085966006
18.017471 -0.70700502 -0.085068658
18.019014 -0.59132123 -0.083673999
18.008917 -0.47511226 -0.079323083
18.006512 -0.35998192 -0.076936394
18.00215 -0.24509615 -0.074058995
18.005535 -0.13066305 -0.073148407
18.016674 -0.016185716 -0.074201554
18.016184 0.098457552 -0.072306901
18.023441 0.21341819 -0.072370701
18.019064 0.32812738 -0.069490977
18.032093 0.44413766 -0.070998959
18.033472 0.55983001 -0.06956204
18.032877 0.67568994 -0.067623526
18.020676 0.79045665 -0.062762372
18.025738 0.90777946 -0.062235188
18.038355 1.0270708 -0.063589029
18.020208 1.1418629 -0.057221625
18.019169 1.2601165 -0.055132948
18.006571 1.3765894 -0.050145116
18.020329 1.4997371 -0.051729448
17.98477 1.6116639 -0.040997382
17.778671 1.6760892 0.012196267
17.376484 1.6756092 0.11405874
17.319582 1.7695432 0.1299224
17.316624 1.8804995 0.13238455
17.320808 1.9951271 0.1330955
16.8577 1.9358106 0.24949071
16.742729 1.9968344 0.27955917
16.906284 2.1705716 0.24081171
16.788471 2.2294941 0.27156895
15.40205 1.7026323 0.614663
15.214321 1.6936345 0.66209322
15.097876 1.7135324 0.69191051
14.999159 1.7388519 0.71732199
14.900645 1.7611477 0.74263692
14.768429 1.761032 0.77614528
14.527876 1.691664 0.83603382
14.390558 1.676069 0.8705982
14.304089 1.6878878 0.89270407
14.234354 1.7080065 0.91069895
14.1728 1.7317406 0.92667627
14.127151 1.7652614 0.93877476
15.566883 2.9092069 0.59160805
15.594717 3.039248 0.58656573
15.420204 3.0109982 0.63035655
15.391382 3.0970464 0.63899273
22.088223 14.732248 -0.87960082
21.849005 14.933244 -0.81593961
21.464514 14.914489 -0.71882719
21.396812 15.381417 -0.69455642
14.285011 21.477737 1.2000557
13.899234 21.311518 1.2952665
13.554024 21.526527 1.3860018
12.721477 14.962576 1.497043
12.462084 14.868622 1.561344
12.223558 15.239598 1.6274341
11.922233 13.096999 1.6711901
11.698462 12.488957 1.7186493
11.73899 -11.628104 1.3474271
11.942773 -11.95436 1.2908609
12.178675 -12.816092 1.2180409
12.393565 -12.774389 1.1642318
12.603588 -12.679025 1.1124678
12.81601 -12.639741 1.0592474
13.028469 -12.606614 1.0059216
13.234025 -12.520124 0.95515537
13.44689 -12.499329 0.90153992
13.65485 -12.445091 0.84967315
13.856343 -12.357693 0.79994953
14.065005 -12.315843 0.74771619
14.260551 -12.211678 0.69975293
13.76856 -9.1196051 0.87132233
14.126827 -6.827981 0.81539404
14.231345 -6.7545781 0.79003674
14.293674 -6.5779061 0.77693778
14.37 -6.446939 0.75959891
14.454679 -6.3425727 0.73973966
14.544947 -6.2551866 0.71820444
14.64171 -6.1844039 0.69477272
14.741414 -6.1209226 0.67048424
14.849074 -6.0733113 0.64393771
14.970302 -6.0497942 0.61358702
15.145507 -6.118506 0.56815583
15.319005 -6.1741843 0.52335453
17.665907 -9.7582321 -0.12584887
17.894123 -9.7484455 -0.18353289
18.074673 -9.659236 -0.22793193
18.058056 -9.281642 -0.217979
18.042135 -8.92379 -0.2085028
18.068968 -8.6408339 -0.21099935
18.094215 -8.3675346 -0.21323864
18.124477 -8.1114731 -0.21701187
18.122988 -7.8265347 -0.21229781
18.139446 -7.574152 -0.21262889
18.155891 -7.3310061 -0.2130944
18.159466 -7.0823874 -0.21021424
18.183714 -6.8644662 -0.21304075
18.188808 -6.6338716 -0.21082069
18.237179 -6.4534149 -0.2203287
18.245825 -6.2395072 -0.21926185
18.270975 -6.0471859 -0.22270481
18.291641 -5.8558965 -0.22502765
18.322786 -5.6784654 -0.23021618
18.327272 -5.4830766 -0.22837351
18.36554 -5.319715 -0.2355822
18.377008 -5.1388521 -0.23573188
18.408035 -4.9766397 -0.24112169
18.403757 -4.7922683 -0.23722386
18.411438 -4.6206398 -0.23655331
18.407227 -4.4448538 -0.23280315
18.390892 -4.2654424 -0.22592568
18.362225 -4.0829501 -0.21587385
18.337868 -3.9077377 -0.20702645
18.309647 -3.7346921 -0.19723043
18.294783 -3.5731132 -0.1909961
18.259169 -3.4043162 -0.17939189
18.254824 -3.2551413 -0.17601085
18.247446 -3.1071851 -0.17188109
18.210459 -2.9485588 -0.16008127
18.205891 -2.807534 -0.15676783
18.207558 -2.6712582 -0.15510857
18.197548 -2.5322978 -0.15044738
18.184839 -2.3945336 -0.14511977
18.160284 -2.2548549 -0.13675915
18.151466 -2.1228113 -0.13250594
18.14945 -1.9946377 -0.13003476
18.117083 -1.8591871 -0.11975817
18.110245 -1.7330434 -0.11609436
18.082272 -1.6030542 -0.10701402
18.07078 -1.478948 -0.10220347
18.057051 -1.3557566 -0.096837394
18.050629 -1.2353514 -0.093366906
18.04208 -1.1156006 -0.089367889
18.031424 -0.99655324 -0.084844977
18.037899 -0.88084894 -0.084715441
18.032764 -0.76409405 -0.081627011
18.054554 -0.65068048 -0.085417286
18.05512 -0.53515488 -0.083792418
18.044041 -0.41921511 -0.079210497
18.040667 -0.30428749 -0.076597035
18.045033 -0.18987733 -0.075953431
18.047462 -0.075424105 -0.07481844
18.047956 0.039055534 -0.073191948
18.056202 0.15378302 -0.073528156
18.0625 0.26880178 -0.073366582
18.057167 0.38346821 -0.070260398
18.059559 0.49879941 -0.069103897
18.069639 0.61527526 -0.069879428
18.068077 0.73112863 -0.067711927
18.064541 0.84709406 -0.065041021
18.078197 0.96610147 -0.066685714
18.0515 1.0792339 -0.058185812
18.051533 1.1971644 -0.056391373
18.059011 1.3174073 -0.056450285
18.045408 1.4339353 -0.051220268
18.039228 1.5526925 -0.047839269
17.927643 1.6440886 -0.018140718
17.525066 1.6490283 0.084044397
17.328966 1.7025324 0.13460384
17.345713 1.8187034 0.13213174
17.351034 1.9328024 0.1325275
17.363352 2.0509632 0.1312086
16.75519 1.9318748 0.28365988
16.757957 2.0372796 0.28457141
16.848377 2.181639 0.26384318
16.71286 2.2301123 0.29896417
15.393477 1.7184623 0.6258558
15.206114 1.7071952 0.67322606
15.089799 1.7254519 0.70302272
14.991173 1.7492852 0.7284174
14.875718 1.7605556 0.75789106
14.727086 1.7485169 0.7954284
14.471045 1.6656922 0.85913372
14.392701 1.6839812 0.87930322
14.314588 1.6999754 0.89937884
14.252963 1.7247224 0.91540527
14.183297 1.7421007 0.93336064
15.593161 2.8436646 0.5924539
15.794465 3.1036396 0.54534692
15.548605 3.0245752 0.60652888
15.428405 3.0372822 0.63722718
15.338963 3.0720499 0.66045904
22.012217 14.830453 -0.85437208
21.693951 14.914066 -0.77238017
21.365234 14.974077 -0.68808997
21.419781 15.642525 -0.69183129
14.546352 21.720842 1.1435239
14.145595 21.47928 1.2415522
13.78754 21.57839 1.3338848
13.452236 21.99011 1.4251549
12.637582 14.960754 1.525896
12.377769 14.834556 1.5899178
12.046281 12.054792 1.632141
11.846811 12.458369 1.6888397
11.671092 -11.598592 1.3744349
11.868564 -11.70676 1.3227375
11.902927 -6.335258 1.3946953
12.315645 -12.780823 1.1932364
12.529648 -12.737244 1.1396228
12.741574 -12.679902 1.0867424
12.951839 -12.618828 1.0343386
13.163827 -12.583833 0.98110795
13.372399 -12.525251 0.92909509
13.582428 -12.482758 0.87647128
13.786603 -12.406984 0.82583177
13.992447 -12.347308 0.77452809
14.192965 -12.264452 0.72492176
14.472996 -12.548361 0.64963573
13.798996 -7.1431403 0.90187448
14.089259 -6.8220301 0.83311921
14.200778 -6.7684288 0.80565035
14.296827 -6.6758208 0.78269374
14.356712 -6.4989986 0.77017546
14.442723 -6.3951941 0.74993402
14.534168 -6.3084135 0.72805548
14.619311 -6.2113309 0.70793247
14.723897 -6.15766 0.68222362
14.832084 -6.1109552 0.65549594
14.944287 -6.070971 0.62764812
15.089821 -6.089416 0.59046638
15.291559 -6.1987057 0.53765988
17.592075 -9.7787952 -0.099764913
17.809254 -9.7546968 -0.15449011
18.022026 -9.7174454 -0.20790043
18.108185 -9.4871197 -0.22628626
18.063772 -9.0787649 -0.20887107
18.083025 -8.7788391 -0.2092374
18.111927 -8.5047159 -0.21243949
18.139612 -8.2400713 -0.21547441
18.154121 -7.9694395 -0.21507797
18.161469 -7.7008734 -0.21289499
18.174654 -7.44941 -0.21244988
18.18792 -7.2071958 -0.21216388
18.208406 -6.9812236 -0.21395485
18.209593 -6.7426286 -0.21065982
18.253361 -6.5547962 -0.2189309
18.271584 -6.3470335 -0.22042082
18.299162 -6.1540365 -0.22450486
18.307644 -5.9489021 -0.22356416
18.333431 -5.7646732 -0.22732726
18.355021 -5.5813689 -0.23003903
18.372446 -5.3990765 -0.23171061
18.393475 -5.2239156 -0.23440291
18.418447 -5.0555539 -0.23819928
18.43186 -4.8821869 -0.23898621
18.433458 -4.7043147 -0.23670828
18.439217 -4.5333638 -0.2355893
18.433058 -4.3583632 -0.2313862
18.381599 -4.1592646 -0.21532562
18.367363 -3.9883885 -0.20913462
18.366322 -3.8290098 -0.20646515
18.319223 -3.6474531 -0.19177544
18.311138 -3.4914863 -0.18736972
18.273724 -3.3238099 -0.17534429
18.267744 -3.1754727 -0.17158636
18.258759 -3.028388 -0.16708656
18.237902 -2.878711 -0.1595345
18.222967 -2.7344766 -0.15356731
18.232265 -2.602428 -0.15393287
18.202705 -2.4572268 -0.14423838
18.197697 -2.3236656 -0.14094977
18.180946 -2.1879609 -0.1346508
18.180113 -2.0594335 -0.13249865
18.158295 -1.9261144 -0.12494802
18.152655 -1.7993931 -0.12160354
18.097719 -1.661399 -0.10557856
18.10615 -1.5416806 -0.10590933
18.103004 -1.4201103 -0.10327468
18.08819 -1.2972202 -0.097660184
18.071175 -1.1753157 -0.091500603
18.061552 -1.0560043 -0.087256707
18.069027 -0.94018537 -0.087403335
18.074512 -0.82443005 -0.087047867
18.068384 -0.70773518 -0.083731756
18.069901 -0.59238869 -0.082375392
18.069456 -0.47722554 -0.080523089
18.067049 -0.36226895 -0.078177199
18.062691 -0.24754862 -0.075339705
18.075766 -0.13346134 -0.076937281
18.077225 -0.018992506 -0.075579673
18.076742 0.095478706 -0.073730245
18.074326 0.20991431 -0.071389966
18.089334 0.32533306 -0.073459446
18.083023 0.43994299 -0.070129678
18.084435 0.55528057 -0.068749718
18.103167 0.6728884 -0.071731269
18.090981 0.78766543 -0.066906802
18.086451 0.90359485 -0.064011395
18.08952 1.0211496 -0.063018277
18.080992 1.137339 -0.059103809
18.079994 1.2554284 -0.05707027
18.067438 1.3717374 -0.052131873
18.081234 1.4947115 -0.053783845
18.045731 1.6064854 -0.043088377
17.811586 1.6630597 0.017206583
17.456242 1.67586 0.10761298
17.390022 1.7670603 0.12579839
17.387075 1.8780177 0.12821896
17.38209 1.9893868 0.1311613
17.001137 1.960892 0.22745375
16.740726 1.9659162 0.29364783
16.79678 2.0933323 0.28133622
16.867905 2.2311497 0.26535335
15.49029 1.7090763 0.60728329
15.267224 1.6835732 0.66354591
15.177099 1.7163597 0.68692994
15.069651 1.7373395 0.71453738
14.971129 1.7596741 0.73989803
14.821911 1.7499185 0.77764928
14.648804 1.720343 0.82117158
14.452678 1.6696585 0.87022078
14.37452 1.686656 0.89033365
14.31292 1.7122571 0.90637189
14.251264 1.7361641 0.92239928
14.197549 1.7641096 0.93647087
15.598099 2.8780835 0.59755182
15.673014 3.0435305 0.58101565
15.498385 3.0154848 0.62494421
15.461908 3.0953932 0.63541305
15.312156 3.0784829 0.67319334
21.905102 14.904447 -0.82435971
21.526497 14.893844 -0.72840041
21.358353 15.201275 -0.68114066
14.371098 21.566051 1.1873726
13.971209 21.280838 1.2846664
13.623953 21.466059 1.3755834
12.790471 14.902329 1.48976
12.535863 14.878311 1.5540552
12.292809 15.129492 1.6195014
11.973307 12.037194 1.6547339
11.771262 12.56896 1.713936
11.791365 -11.668056 1.3521909
11.872478 -6.3468757 1.4099942
12.2312 -12.836194 1.2233436
12.446373 -12.794551 1.1693423
12.657412 -12.709205 1.1170323
12.868487 -12.650043 1.0643266
13.079996 -12.607041 1.0112725
13.289191 -12.550366 0.9590075
13.499703 -12.509796 0.90617168
13.704649 -12.435884 0.85523874
13.911119 -12.378081 0.8036806
14.114367 -12.306847 0.75313967
14.33652 -12.329697 0.69641089
13.749867 -7.1239552 0.92211133
14.053662 -6.8438802 0.84914368
14.168968 -6.8006821 0.82051718
14.280012 -6.746109 0.79313928
14.349528 -6.5879951 0.7778309
14.410667 -6.4203153 0.76479256
14.502826 -6.3343911 0.74267054
14.59291 -6.2471132 0.72109663
14.698071 -6.1943378 0.69518501
14.797888 -6.1308169 0.67078876
14.919436 -6.1095285 0.64025199
15.050691 -6.1031275 0.60703194
17.553518 -10.272528 -0.089908749
17.530201 -9.8330746 -0.077503763
17.711292 -9.7519579 -0.12228306
17.939301 -9.7423563 -0.18002948
18.119671 -9.6533136 -0.22450991
18.09177 -9.2595329 -0.21161523
18.086962 -8.9180584 -0.20535435
18.090199 -8.6034851 -0.20153305
18.138823 -8.3620405 -0.21031463
18.168976 -8.1060972 -0.21419136
18.173649 -7.8288741 -0.21128668
18.183737 -7.5690136 -0.21001126
18.200075 -7.3259902 -0.2105716
18.210188 -7.0847468 -0.2095779
18.227684 -6.8597031 -0.21069597
18.239563 -6.6362462 -0.21041371
18.273922 -6.4420443 -0.21626882
18.296591 -6.241909 -0.21906962
18.321747 -6.0495968 -0.22261614
18.342421 -5.8583164 -0.22504066
18.366108 -5.67454 -0.22834232
18.370493 -5.4792876 -0.22657198
18.377987 -5.2917371 -0.22570485
18.427799 -5.1413126 -0.23613134
18.450953 -4.9733071 -0.23953056
18.446581 -4.7890778 -0.23569877
18.438047 -4.6065593 -0.2308363
18.441721 -4.4365916 -0.22925812
18.425211 -4.2574749 -0.22242038
18.396378 -4.0752597 -0.21240725
18.380281 -3.9052756 -0.2058087
18.368984 -3.741915 -0.20052603
18.337044 -3.5709424 -0.18988959
18.284044 -3.3933656 -0.17380758
18.288206 -3.2489691 -0.17273127
18.280685 -3.1013231 -0.16864036
18.252434 -2.9469888 -0.15918644
18.247799 -2.8061237 -0.15592802
18.240398 -2.6663518 -0.15198338
18.248394 -2.5347188 -0.15207013
18.226559 -2.3936131 -0.14444008
18.201944 -2.254091 -0.13612922
18.183838 -2.1192076 -0.12953837
18.181721 -1.9913661 -0.12711124
18.158588 -1.8589207 -0.11927993
18.132948 -1.7279254 -0.11083413
18.114267 -1.6007791 -0.10421063
18.112148 -1.4791745 -0.10187701
18.107864 -1.3581458 -0.099002734
18.091915 -1.2359149 -0.093146466
18.083332 -1.1163386 -0.089201421
18.082222 -0.99893612 -0.087187
18.079082 -0.88192898 -0.084661879
18.083544 -0.76648539 -0.08409211
18.086037 -0.65115565 -0.083023116
18.096222 -0.53677046 -0.08392249
18.075455 -0.42039311 -0.076929457
18.081734 -0.30625272 -0.076842047
18.095774 -0.19228667 -0.07872659
18.07881 -0.077652372 -0.072727367
18.088985 0.03655798 -0.073627889
18.097225 0.15110111 -0.074032791
18.103521 0.26594472 -0.073939808
18.098188 0.38043606 -0.070898406
18.110249 0.49637467 -0.072253622
18.110672 0.61189634 -0.070658706
18.109125 0.72757065 -0.068560809
18.11521 0.84466618 -0.068382777
18.109676 0.96071321 -0.065269135
18.10216 1.0768076 -0.061649416
18.092644 1.1929144 -0.057523746
18.090641 1.3109881 -0.055278141
18.096046 1.4314985 -0.054876637
18.080435 1.5479252 -0.049196403
17.978273 1.6416953 -0.02186317
17.613104 1.6574814 0.07114584
17.379604 1.7003907 0.13110267
17.396347 1.8165504 0.12855981
17.392454 1.9274746 0.13117951
17.395672 2.0421331 0.13204819
16.805799 1.9299648 0.28027436
16.736311 2.0060661 0.29905087
16.934843 2.1949866 0.25138688
16.816856 2.2521341 0.28220525
15.46169 1.7254043 0.61879945
15.23034 1.6930271 0.67711234
15.148983 1.728694 0.69831383
15.041648 1.7481064 0.72587937
14.934704 1.764201 0.75329602
14.769055 1.7425345 0.79507625
14.563281 1.6901008 0.84660035
14.434781 1.6778409 0.87908065
14.364923 1.6990863 0.89715159
14.303278 1.7238522 0.91318911
14.241591 1.7469274 0.92921066
15.936309 3.0570183 0.51779312
15.641762 2.9475162 0.59103799
15.560444 2.9927275 0.6123687
15.486387 3.0421402 0.6319142
15.56186 3.2169683 0.61530203
15.307208 3.1097305 0.67844558
22.036518 14.785562 -0.86094695
21.763132 14.934718 -0.7893216
21.396351 14.936807 -0.69611001
21.399237 15.520531 -0.68834513
14.19444 21.428926 1.228042
13.828567 21.43854 1.3211373
13.484592 21.710651 1.4124849
12.697668 15.08047 1.5160457
12.432562 14.884572 1.5805576
12.189458 15.203587 1.6469649
11.906691 13.128577 1.6886566
11.744867 -11.618268 1.3835689
11.871369 -6.3378377 1.4269389
12.175065 -12.860445 1.2565514
12.390923 -12.820768 1.2022963
12.603662 -12.747327 1.1493151
12.815742 -12.690074 1.0962692
13.027139 -12.639025 1.0433092
13.238293 -12.59417 0.99032116
13.449645 -12.55547 0.93719363
13.658678 -12.503119 0.88485128
13.858237 -12.397843 0.83567148
14.067526 -12.357929 0.78308541
14.268204 -12.275134 0.73329997
13.776377 -9.051506 0.90436047
13.757971 -7.1998858 0.93555719
14.16402 -6.8227849 0.83784473
14.278971 -6.7785716 0.80928665
14.371581 -6.676661 0.78722757
14.431502 -6.4998741 0.77454644
14.521421 -6.4052377 0.75306743
14.604897 -6.3003006 0.73337227
14.70254 -6.2302899 0.70957875
14.794315 -6.1497822 0.68742514
14.906857 -6.11203 0.65938359
15.042377 -6.1158338 0.62490869
15.198239 -6.151238 0.5848124
17.503963 -9.8947096 -0.054561447
17.66547 -9.7812366 -0.093966544
17.877373 -9.7488499 -0.14733838
18.100758 -9.7283754 -0.20379937
18.164986 -9.4652081 -0.21634795
18.142931 -9.0894957 -0.20536545
18.156584 -8.7814789 -0.20442346
18.173672 -8.4915962 -0.20461363
18.201145 -8.2271719 -0.20780693
18.209253 -7.9490991 -0.20588413
18.203615 -7.6657696 -0.20039356
18.23559 -7.4371786 -0.20524436
18.248655 -7.1951976 -0.20509787
18.268944 -6.9694657 -0.20701958
18.276766 -6.7381859 -0.20569518
18.320446 -6.5504889 -0.21410568
18.33153 -6.3360262 -0.21385112
18.366087 -6.1499882 -0.21996756
18.36721 -5.9384246 -0.2172226
18.392807 -5.7544641 -0.22109252
18.414207 -5.5714202 -0.22391117
18.431456 -5.3894095 -0.22568783
18.452309 -5.214529 -0.22848219
18.477104 -5.0464492 -0.23237793
18.49827 -4.8790989 -0.23535995
18.4998 -4.7013636 -0.23320515
18.489279 -4.5196571 -0.22792941
18.474676 -4.3397913 -0.22164439
18.456053 -4.1618614 -0.21436624
18.433474 -3.9859633 -0.20611022
18.423916 -3.8218849 -0.20133266
18.385235 -3.6453021 -0.18897462
18.368477 -3.4849391 -0.1824221
18.33963 -3.3219254 -0.17275773
18.316065 -3.1652813 -0.16452734
18.315727 -3.0227306 -0.16240317
18.29476 -2.8733575 -0.15493715
18.288687 -2.7331834 -0.15138927
18.279871 -2.5941212 -0.14715958
18.268339 -2.4562271 -0.14225896
18.254139 -2.3195612 -0.13669471
18.237303 -2.1841784 -0.13047934
18.227119 -2.0530462 -0.12601891
18.223787 -1.9257337 -0.12335241
18.208765 -1.79658 -0.11768867
18.153767 -1.6588857 -0.10174068
18.171562 -1.5417593 -0.10459221
18.15892 -1.4182625 -0.099614941
18.144054 -1.2957094 -0.09408585
18.136526 -1.1758726 -0.090461612
18.126886 -1.0567172 -0.086311281
18.134338 -0.94106346 -0.086556353
18.139816 -0.82547826 -0.086299554
18.133677 -0.70894593 -0.083077572
18.135189 -0.59377599 -0.08181949
18.125071 -0.47807068 -0.077599153
18.13233 -0.36397797 -0.077818401
18.12797 -0.2494259 -0.07507924
18.141052 -0.13551262 -0.076782212
18.13282 -0.021204835 -0.073062152
18.142036 0.093093447 -0.073779911
18.149323 0.20771061 -0.073999546
18.154655 0.32260242 -0.073722251
18.148365 0.43704936 -0.070495516
18.149797 0.55222392 -0.069223367
18.149271 0.66757697 -0.067449167
18.156393 0.7842769 -0.067602158
18.161499 0.90142447 -0.0672369
18.154993 1.0174235 -0.063936688
18.136951 1.1317179 -0.057726208
18.136017 1.2494733 -0.055818252
18.133022 1.3675252 -0.053383827
18.156319 1.4925816 -0.057533458
18.111416 1.6019613 -0.044564672
17.858585 1.6533089 0.02045273
17.522041 1.6712737 0.10628482
17.437323 1.7565026 0.12903568
17.462214 1.8762286 0.12440295
17.438881 1.9811109 0.1318215
17.422844 2.0891263 0.13742959
16.75246 1.9393811 0.30578557
16.75495 2.0431776 0.30662397
16.907333 2.2140112 0.27029237
15.547728 1.7000387 0.60877413
15.342394 1.6827641 0.66075206
15.234813 1.7068318 0.68845749
15.162117 1.7456995 0.7074998
15.046285 1.7590121 0.73715246
14.914053 1.7590144 0.77078688
14.715531 1.714835 0.8206566
14.544462 1.6795254 0.8636716
14.441401 1.6809837 0.88990945
14.379886 1.7064707 0.90592235
14.318315 1.7302562 0.9219256
14.272644 1.7638189 0.93402225
15.704715 2.9006989 0.58585751
15.686088 2.9944975 0.59191918
15.565893 3.0084958 0.62268937
15.552181 3.1071656 0.62756884
15.461787 3.1419861 0.65105134
22.174515 14.635491 -0.89486206
21.970448 14.884714 -0.8395015
21.608482 14.898956 -0.74727708
21.349983 15.064038 -0.67925483
14.474319 21.774551 1.1623067
14.055113 21.340765 1.2628391
13.710405 21.566078 1.3536139
13.367264 21.90509 1.4455733
12.614015 14.909052 1.5396416
12.362993 14.9605 1.6041818
12.048915 12.018177 1.6430651
11.847328 12.560043 1.7018696
11.839342 -6.337707 1.4440392
12.089287 -12.913053 1.2903556
12.305188 -12.845343 1.236412
12.520025 -12.793775 1.1825174
12.733291 -12.738403 1.129074
12.944927 -12.679261 1.0760975
13.154869 -12.616399 1.0236009
13.364288 -12.55977 0.97115302
13.575018 -12.519238 0.91815102
13.781748 -12.455225 0.86648673
13.988605 -12.397427 0.81470442
14.190343 -12.316385 0.76454341
13.738427 -9.1467915 0.9229576
14.119021 -6.8151979 0.85834891
14.250702 -6.8190427 0.8248384
14.358599 -6.7550669 0.79830492
14.432014 -6.6061487 0.78170639
14.489695 -6.4291735 0.76949322
14.582067 -6.3431945 0.74720991
14.680644 -6.2739177 0.72311962
14.769147 -6.1851349 0.70185673
14.882196 -6.1483259 0.67364037
15.008687 -6.1357026 0.64167356
15.135694 -6.1203752 0.60961169
17.526033 -10.09221 -0.052733939
17.595377 -9.8166485 -0.066564649
17.791765 -9.7610598 -0.11572332
18.009319 -9.7347412 -0.17066699
18.1896 -9.6458416 -0.21527347
18.161646 -9.2521362 -0.20274009
18.139574 -8.8866243 -0.19209094
18.17757 -8.6200686 -0.19807576
18.196507 -8.3392706 -0.19901727
18.220192 -8.0759325 -0.20140734
18.224421 -7.7991467 -0.19866404
18.246859 -7.5547137 -0.2009948
18.256493 -7.3045406 -0.19999173
18.279591 -7.078156 -0.20273945
18.276726 -6.8318214 -0.19861059
18.308859 -6.6298823 -0.20399006
18.350163 -6.4426808 -0.21190633
18.365778 -6.2357864 -0.21301858
18.383648 -6.0369663 -0.21481493
18.396818 -5.839448 -0.21543409
18.42024 -5.6560688 -0.21885544
18.431932 -5.467433 -0.21922006
18.446943 -5.2862306 -0.22053297
18.488945 -5.1300006 -0.2290519
18.511959 -4.962276 -0.23258479
18.507452 -4.7783108 -0.22889534
18.514914 -4.6071105 -0.22842489
18.510492 -4.4317498 -0.22487527
18.485714 -4.247539 -0.21602543
18.448435 -4.0605302 -0.20395969
18.440563 -3.8959031 -0.19967827
18.420658 -3.7280543 -0.19229512
18.405701 -3.5667629 -0.18625803
18.35269 -3.3893185 -0.17032117
18.348099 -3.240757 -0.16709705
18.340498 -3.0934169 -0.16312318
18.312168 -2.9393802 -0.15378539
18.316393 -2.802654 -0.15296681
18.299984 -2.6593583 -0.14680791
18.289783 -2.5210292 -0.14229774
18.276894 -2.3839018 -0.13712059
18.261353 -2.2480302 -0.13128605
18.252428 -2.1164796 -0.12719356
18.24103 -1.9859475 -0.12248689
18.236517 -1.8591635 -0.11958309
18.192192 -1.7231411 -0.10642326
18.173479 -1.5963119 -0.099906504
18.180792 -1.4772049 -0.10011676
18.167038 -1.3543382 -0.094916083
18.160597 -1.2342569 -0.091614634
18.152037 -1.1148355 -0.087782204
18.160534 -0.99908024 -0.088340931
18.157448 -0.88205618 -0.085934795
18.152334 -0.76546645 -0.083020046
18.154861 -0.65030462 -0.082067654
18.155422 -0.53529561 -0.080618128
18.154026 -0.4204765 -0.078673221
18.150673 -0.30587879 -0.076236203
18.14538 -0.19154613 -0.073307477
18.15753 -0.077695005 -0.07482361
18.148373 0.036356252 -0.07091669
18.156668 0.15056361 -0.071447514
18.163021 0.265064 -0.071481183
18.177111 0.38043624 -0.073470429
18.17955 0.49560088 -0.072502397
18.170387 0.61000395 -0.068588711
18.178555 0.72647506 -0.069058187
18.175091 0.84210706 -0.066582046
18.169651 0.9578197 -0.063600987
18.152672 1.071937 -0.057704117
18.162361 1.191182 -0.058526509
18.160444 1.3090918 -0.056410331
18.146984 1.4251229 -0.051386759
18.140959 1.5433846 -0.048224248
18.048332 1.639356 -0.02332907
17.748728 1.6737415 0.053393736
17.449905 1.6978549 0.12977928
17.466738 1.8138522 0.12709495
17.453743 1.9214535 0.13188551
17.466265 2.03913 0.13032079
16.949282 1.9549127 0.26074716
16.743975 1.9772475 0.31331423
16.81749 2.1113276 0.29645258
16.914644 2.2605815 0.27377942
15.462385 1.6888648 0.63557935
15.29309 1.6852157 0.67863333
15.203248 1.7161367 0.70193857
15.130651 1.7535667 0.72094452
15.023689 1.7698392 0.74840873
14.849576 1.7434419 0.79238224
14.652247 1.6961268 0.84197831
14.523724 1.6840445 0.87454504
14.429256 1.6893482 0.89868134
14.375944 1.7193593 0.91267991
14.330423 1.7536246 0.92475522
16.1514 3.1564379 0.48041448
15.738083 2.9602208 0.58295435
15.61035 2.9692309 0.61560166
15.529158 3.0118878 0.63686383
15.552681 3.1415348 0.63265616
15.351156 3.0781751 0.68310255
22.346989 14.574903 -0.94150549
22.082296 14.736857 -0.87196201
21.848417 14.943151 -0.80966145
21.454676 14.903728 -0.70999593
21.40572 15.402777 -0.69080156
14.269259 21.380848 1.2057642
13.889823 21.241121 1.3004397
13.559586 21.642561 1.3898762
12.774921 15.012292 1.5003735
12.513837 14.876296 1.5649923
12.270909 15.195337 1.63111
12.014732 15.290052 1.697584
11.821901 -6.3272877 1.4599959
12.017631 -12.944835 1.3219147
12.234833 -12.889032 1.2673967
12.450698 -12.839352 1.2131369
12.663102 -12.755912 1.1602077
12.876945 -12.718571 1.106298
13.086862 -12.647588 1.0538343
13.297012 -12.592789 1.0010962
13.510969 -12.573895 0.94690984
13.717344 -12.501744 0.89536303
13.921814 -12.426013 0.84435022
14.126131 -12.356553 0.7932905
14.344604 -12.361789 0.73763275
14.3398 -6.7864785 0.81339073
14.421744 -6.6566906 0.7942816
14.485061 -6.489233 0.78041667
14.5748 -6.3946657 0.75885451
14.666224 -6.3079362 0.73675901
14.759778 -6.2288542 0.71401817
14.860269 -6.1661701 0.68929404
14.991167 -6.1635776 0.6560266
15.118241 -6.1493902 0.62388903
17.533112 -10.24646 -0.045420192
17.546896 -9.8675842 -0.043859772
17.723251 -9.7798233 -0.087561928
17.935133 -9.7474375 -0.14104658
18.147717 -9.7103748 -0.19464727
18.167362 -9.3818617 -0.19525021
18.149517 -9.0152493 -0.185802
18.173485 -8.7241335 -0.18800527
18.219265 -8.4743977 -0.19631067
18.246412 -8.210187 -0.19968157
18.254196 -7.9323311 -0.19794194
18.267233 -7.6718707 -0.19777115
18.273453 -7.4134307 -0.19589101
18.286087 -7.1718011 -0.19586957
18.285835 -6.9248428 -0.19249573
18.320192 -6.7225757 -0.19852874
18.356647 -6.5281758 -0.20520006
18.38146 -6.3277364 -0.20882699
18.401505 -6.1284347 -0.21125536
18.409534 -5.9238253 -0.21055429
18.434868 -5.7401199 -0.21453874
18.448509 -5.551055 -0.21547404
18.465399 -5.3694472 -0.21733584
18.485899 -5.1949759 -0.22021207
18.518177 -5.033196 -0.22625594
18.523266 -4.8546505 -0.22515532
18.540401 -4.6886778 -0.22728936
18.529657 -4.507256 -0.22211809
18.514833 -4.3276815 -0.21593523
18.479422 -4.1397443 -0.20439972
18.464836 -3.9694526 -0.19839999
18.45499 -3.8058226 -0.19369754
18.433109 -3.6390891 -0.18588854
18.407623 -3.4743359 -0.17718817
18.37859 -3.3116369 -0.16761345
18.363615 -3.1595328 -0.16175762
18.354338 -3.0130649 -0.15742746
18.342112 -2.8679221 -0.15236463
18.335945 -2.7279069 -0.14891221
18.317999 -2.5854192 -0.14242944
18.29723 -2.4444308 -0.13524665
18.291981 -2.3115139 -0.13212283
18.275003 -2.1764576 -0.12598506
18.273952 -2.0485921 -0.12399715
18.251932 -1.9159155 -0.1166075
18.236748 -1.7872744 -0.11101154
18.190987 -1.6525072 -0.097550169
18.208677 -1.5357144 -0.10048117
18.205408 -1.4146421 -0.098018549
18.190479 -1.2922555 -0.092571706
18.173361 -1.1708519 -0.086579278
18.18277 -1.0551684 -0.087418117
18.180607 -0.93812621 -0.085291095
18.166803 -0.82026803 -0.080191053
18.170219 -0.70530069 -0.079511933
18.171669 -0.59047031 -0.078335948
18.171165 -0.47581324 -0.07666374
18.159039 -0.36084658 -0.072027758
18.174 -0.24751876 -0.074310809
18.177359 -0.1336012 -0.073632032
18.178791 -0.019638829 -0.072462484
18.178295 0.094312869 -0.070802234
18.185558 0.2085844 -0.071113281
18.190884 0.32313415 -0.070925765
18.194258 0.4379271 -0.070239827
18.186022 0.55205852 -0.066606618
18.185497 0.66706389 -0.064925462
18.202251 0.78463584 -0.067609258
18.207355 0.90161532 -0.067332804
18.191278 1.0158796 -0.06170116
18.192364 1.1332952 -0.060397338
18.191406 1.2510587 -0.058568925
18.188385 1.3691095 -0.056212254
18.1833 1.4874252 -0.053324755
18.147907 1.5987176 -0.042814877
17.885798 1.6471219 0.024574688
17.577387 1.6728302 0.10344938
17.474102 1.7522142 0.13081737
17.489841 1.8685199 0.1283768
17.475819 1.9761559 0.1333966
17.496346 2.0975146 0.12980434
16.762514 1.9229876 0.31431884
16.729296 2.0110052 0.32396495
16.935808 2.2038288 0.27397418
16.93329 2.3111587 0.27606142
15.397913 1.6842027 0.65861493
15.28161 1.7038859 0.68850428
15.208989 1.7425824 0.70752662
15.110385 1.7651186 0.7329464
14.978083 1.7652707 0.76664919
14.787917 1.7262268 0.81456131
14.600046 1.6809089 0.86180514
14.513474 1.6929498 0.8840242
14.419187 1.6969528 0.90809906
14.365854 1.7260319 0.9220826
14.352109 1.7823814 0.92635012
16.035053 3.1077816 0.51555645
15.741299 2.9959526 0.58887255
15.567504 2.9668655 0.63274926
15.516743 3.0331223 0.64657289
15.591442 3.2076838 0.62989748
22.20945 14.613234 -0.90289146
22.00017 14.853955 -0.84638679
21.666012 14.909215 -0.76056063
21.343681 14.973763 -0.67761904
21.40432 15.658669 -0.68391925
